-9.70196347e-01 1.28710200e-01 2.05311306e-01
-6.60652863e-01 -5.69585671e-01 -4.88988710e-01
3.58913188e-01 5.86279950e-01 -7.26262448e-01
-5.06053438e-01 3.12359216e-01 -8.03953753e-01
8.78413625e-01 4.19048882e-01 -2.29755388e-01
-3.65947060e-01 -3.32730364e-03 -9.30629721e-01
-8.19633843e-01 -5.59446223e-01 1.23370526e-01
3.82981877e-01 7.74564391e-01 5.03363572e-01
-6.42646344e-01 -2.44025681e-01 7.26262448e-01
-7.46777196e-02 9.89546841e-01 1.23370526e-01
-6.87189925e-01 1.76879633e-02 -7.26262448e-01
1.29713674e-01 -8.62591679e-01 4.88988710e-01
-1.72017720e-01 3.43829078e-01 -9.23142172e-01
-8.62283378e-01 -5.56101605e-02 5.03363572e-01
8.25380033e-01 -1.18319602e-01 5.52040101e-01
-8.78898717e-01 1.48737000e-01 -4.53226599e-01
-8.72990171e-01 -4.42419969e-01 -2.05311306e-01
7.10987612e-02 3.58989258e-01 9.30629721e-01
-2.13148555e-01 5.55181102e-01 8.03953753e-01
7.21136909e-01 1.10979446e-03 -6.92791691e-01
4.79301501e-01 -7.18954230e-01 5.03363573e-01
-6.40993157e-01 6.60566466e-01 3.90870461e-01
5.23537735e-01 2.82075525e-01 -8.03953754e-01
-3.67166739e-02 -8.33008771e-01 -5.52040101e-01
2.11554204e-01 -6.06045450e-01 7.66781410e-01
9.71025277e-01 -1.82470224e-01 -1.54319567e-01
1.09990733e-01 6.78560900e-01 7.26262448e-01
4.04179484e-01 8.98939136e-01 -1.68959685e-01
-8.61575818e-11 8.71284882e-11 1.00000000e+00
-3.86375983e-01 -8.35424373e-01 -3.90870461e-01
-5.15157797e-01 -6.55640275e-01 5.52040101e-01
-3.47604004e-01 -9.37641433e-01 8.99401938e-11
-1.62949229e-01 8.56934998e-01 -4.88988710e-01
6.80900554e-01 2.37516544e-01 6.92791691e-01
-8.47039811e-04 6.41907744e-01 -7.66781410e-01
-7.80207846e-01 -4.31116419e-01 4.53226599e-01
1.85855059e-01 -3.15255799e-01 -9.30629721e-01
6.78805954e-01 -7.14615353e-01 1.68959685e-01
-3.59607344e-01 -6.25077780e-01 -6.92791691e-01
7.39765094e-01 3.84706813e-01 -5.52040101e-01
-5.30310738e-01 7.52323603e-01 -3.90870461e-01
-4.85880245e-02 -3.81376107e-01 9.23142172e-01
5.96564476e-01 7.75859584e-01 2.05311306e-01
6.17656681e-01 -6.04256021e-01 -5.03363572e-01
5.68259379e-01 6.86780116e-01 -4.53226599e-01
-7.62998347e-02 -9.70252955e-01 -2.29755388e-01
2.79472073e-01 9.45170876e-01 1.68959685e-01
8.23602092e-01 -2.87349327e-01 -4.88988710e-01
8.55987735e-01 4.93427268e-01 1.54319567e-01
-8.55314416e-01 4.94593490e-01 1.54319567e-01
-5.46145638e-01 4.70918906e-01 6.92791691e-01
-6.30627858e-01 1.19811411e-01 7.66781410e-01
-3.46443198e-01 -1.17921296e-01 9.30629722e-01
-2.11755856e-01 -3.20886255e-01 -9.23142172e-01
9.85823302e-01 1.67786818e-01 3.54347306e-11
-1.20374739e-11 -9.11482942e-11 -1.00000000e+00
9.16686721e-01 8.31007694e-02 -3.90870461e-01
-7.03048420e-01 4.48301958e-01 -5.52040101e-01
-6.38219298e-01 7.69854615e-01 -1.08229083e-10
8.92563919e-01 2.24833124e-01 3.90870461e-01
1.67461523e-02 8.91238025e-01 4.53226599e-01
-9.80593870e-01 -9.94398674e-02 -1.68959685e-01
-2.51570762e-01 -8.85399590e-01 3.90870461e-01
7.63461694e-01 -4.60121606e-01 4.53226599e-01
3.73631871e-01 -9.04569783e-01 2.05311306e-01
2.56885232e-01 -9.58535180e-01 -1.23370526e-01
5.56331933e-01 -3.20220314e-01 -7.66781410e-01
-8.02113790e-01 5.51204073e-01 -2.29755388e-01
7.01673200e-01 7.01736726e-01 -1.23370526e-01
-8.32129405e-01 -2.32778366e-01 -5.03363572e-01
3.83773576e-01 -2.29428235e-02 -9.23142172e-01
3.10639338e-01 -8.35517117e-01 -4.53226599e-01
-5.55484893e-01 -3.21687430e-01 -7.66781410e-01
3.54575409e-01 1.48609590e-01 9.23142172e-01
4.19073654e-01 4.86234040e-01 7.66781410e-01
-5.74603610e-01 -7.85520944e-01 2.29755388e-01
1.80092000e-01 3.18583102e-01 -9.30629722e-01
-9.58278026e-01 -2.30555524e-01 1.68959685e-01
-1.74842973e-02 -5.94434741e-01 -8.03953753e-01
-3.61529565e-01 6.23967985e-01 -6.92791691e-01
5.87375215e-01 -9.29984878e-02 8.03953753e-01
-3.10222236e-01 7.73959877e-01 5.52040101e-01
5.76414386e-01 -7.99499268e-01 -1.68959685e-01
-6.43536488e-01 -7.49697446e-01 -1.54319567e-01
6.82169470e-01 5.43631177e-01 4.88988710e-01
-3.05987385e-01 2.32766517e-01 9.23142172e-01
-6.73319049e-04 -9.88020758e-01 1.54319567e-01
5.33481532e-02 9.77241650e-01 -2.05311306e-01
2.75344437e-01 -2.41067962e-01 9.30629722e-01
3.28276737e-01 -6.03967914e-01 -7.26262448e-01
-3.92979288e-01 8.90381795e-01 2.29755388e-01
8.19642018e-01 -5.34821681e-01 -2.05311306e-01
2.14472724e-01 8.37034387e-01 -5.03363573e-01
9.67582897e-01 -1.04860851e-01 2.29755388e-01
-8.11883144e-01 3.18960502e-01 4.88988710e-01
5.32655611e-01 -4.34535219e-01 7.26262448e-01
8.94311563e-01 -4.30100618e-01 1.23370526e-01
-3.74226661e-01 -4.62182614e-01 8.03953754e-01
-3.27488789e-01 9.32167670e-01 -1.54319567e-01
-9.58558432e-01 2.56798453e-01 -1.23370526e-01
-1.34754917e-01 -7.08435449e-01 6.92791691e-01
