-2.21962723e-01 -2.91980467e-01 9.30311153e-01
8.46420662e-01 5.03383948e-01 1.73713716e-01
2.86380372e-01 1.80261260e-01 -9.41006530e-01
7.51473258e-01 4.29504228e-01 -5.00813998e-01
-3.42193711e-01 -8.48358784e-01 4.03968258e-01
-2.27314476e-01 -9.18812592e-01 -3.22663814e-01
2.15501644e-01 7.46406209e-01 -6.29632883e-01
9.34235492e-01 3.10163740e-01 -1.76075869e-01
-3.53025446e-01 -6.16769947e-01 7.03538928e-01
-5.49399822e-01 -3.34410430e-01 7.65720956e-01
-8.02330293e-01 -3.31483390e-01 4.96371098e-01
2.89841013e-01 -4.31841302e-01 -8.54111410e-01
6.80327774e-01 -7.31046311e-01 -5.22060711e-02
-8.82187514e-01 -1.04195985e-01 -4.59226455e-01
-8.97830470e-01 -1.40682769e-02 4.40115897e-01
-4.31809352e-01 -4.90358287e-01 -7.57027306e-01
6.19233975e-01 2.09288586e-01 -7.56801479e-01
-5.88219648e-01 5.84647245e-01 5.58734798e-01
4.43171340e-01 -1.19573585e-01 -8.88426917e-01
2.88932268e-01 -8.34311413e-01 4.69512565e-01
-1.13777165e-01 8.96161703e-01 -4.28893311e-01
5.97907477e-01 -4.30485630e-01 -6.76157957e-01
6.13512232e-01 7.71863066e-01 1.66823108e-01
5.23056816e-01 -3.10252254e-01 7.93822496e-01
-4.22539912e-01 7.13415802e-01 -5.59015729e-01
-2.93045032e-01 6.01496702e-01 7.43186004e-01
3.41386896e-02 5.53185856e-01 8.32357472e-01
-9.63689638e-01 2.02646575e-01 1.73886279e-01
-5.20279750e-01 -8.38958032e-01 -1.59557494e-01
-7.51473258e-01 -4.29504228e-01 -5.00813998e-01
4.18774249e-01 -8.75960378e-01 -2.39419781e-01
-8.46420662e-01 -5.03383948e-01 1.73713716e-01
4.16985401e-02 8.04745815e-01 5.92152594e-01
-6.13512232e-01 -7.71863066e-01 1.66823108e-01
2.93045032e-01 -6.01496702e-01 7.43186004e-01
9.86716408e-01 -6.02935479e-02 -1.50849593e-01
-4.16985402e-02 -8.04745815e-01 5.92152594e-01
-3.41386896e-02 -5.53185856e-01 8.32357472e-01
3.53025446e-01 6.16769947e-01 7.03538928e-01
8.18723312e-01 -5.18203611e-01 2.47299131e-01
5.88219648e-01 -5.84647245e-01 5.58734798e-01
-4.96628467e-11 2.48519336e-11 9.99999401e-01
9.63689638e-01 -2.02646575e-01 1.73886279e-01
-6.80327774e-01 7.31046311e-01 -5.22060711e-02
-8.67412786e-02 1.51817209e-01 -9.84595686e-01
-2.88932268e-01 8.34311413e-01 4.69512565e-01
7.03060529e-01 -6.05262368e-01 -3.73314621e-01
9.15867377e-02 4.60892559e-01 -8.82717949e-01
-7.74983422e-01 -6.08979180e-01 -1.68953415e-01
-3.30668282e-01 9.38928240e-01 9.52477451e-02
-2.89841013e-01 4.31841302e-01 -8.54111410e-01
-8.95644562e-01 4.34037835e-01 -9.71189590e-02
-7.23879677e-01 1.09724667e-01 -6.81145745e-01
7.23879677e-01 -1.09724667e-01 -6.81145745e-01
-5.73711978e-01 7.73566847e-01 2.69162732e-01
5.73711978e-01 -7.73566847e-01 2.69162732e-01
4.22539912e-01 -7.13415802e-01 -5.59015729e-01
5.20279750e-01 8.38958032e-01 -1.59557494e-01
-5.23056816e-01 3.10252254e-01 7.93822496e-01
6.22549606e-01 6.16418171e-01 4.82141107e-01
3.88983848e-01 8.96535262e-04 9.21243539e-01
8.97830470e-01 1.40682769e-02 4.40115897e-01
-6.22549606e-01 -6.16418171e-01 4.82141107e-01
-5.35790371e-01 -6.96765240e-01 -4.76914511e-01
8.95644562e-01 -4.34037835e-01 -9.71189590e-02
5.35790371e-01 6.96765240e-01 -4.76914511e-01
2.27314476e-01 9.18812592e-01 -3.22663814e-01
5.49399822e-01 3.34410430e-01 7.65720956e-01
-9.15867377e-02 -4.60892559e-01 -8.82717949e-01
1.82731182e-01 -2.92411638e-01 9.38671201e-01
1.13121846e-01 -6.91355581e-01 -7.13604768e-01
-9.73460035e-01 -1.78597523e-01 1.43102457e-01
-2.86380372e-01 -1.80261260e-01 -9.41006530e-01
4.31809352e-01 4.90358287e-01 -7.57027306e-01
-3.88983848e-01 -8.96535175e-04 9.21243539e-01
-4.18774249e-01 8.75960378e-01 -2.39419781e-01
-9.86716408e-01 6.02935478e-02 -1.50849593e-01
-5.97907477e-01 4.30485630e-01 -6.76157957e-01
8.65526237e-01 -2.82792425e-01 -4.13392395e-01
8.67412787e-02 -1.51817209e-01 -9.84595687e-01
8.02330293e-01 3.31483390e-01 4.96371098e-01
-2.80261752e-01 -9.57604786e-01 6.66809203e-02
-6.87948924e-01 -1.51194146e-02 7.25601000e-01
3.30668282e-01 -9.38928240e-01 9.52477452e-02
2.80261752e-01 9.57604786e-01 6.66809203e-02
8.82187514e-01 1.04195985e-01 -4.59226455e-01
9.73460035e-01 1.78597523e-01 1.43102457e-01
-7.34104558e-03 9.62019636e-01 2.72880930e-01
-4.43171340e-01 1.19573585e-01 -8.88426917e-01
-8.65526237e-01 2.82792425e-01 -4.13392395e-01
7.34104552e-03 -9.62019636e-01 2.72880931e-01
-8.18723312e-01 5.18203611e-01 2.47299131e-01
-7.03060529e-01 6.05262368e-01 -3.73314621e-01
-1.82731182e-01 2.92411638e-01 9.38671201e-01
7.90638089e-01 -2.99496923e-01 5.34034048e-01
-4.74489628e-02 9.94188288e-01 -9.66351865e-02
-7.90638089e-01 2.99496923e-01 5.34034048e-01
1.13777165e-01 -8.96161703e-01 -4.28893311e-01
6.87948924e-01 1.51194147e-02 7.25601000e-01
7.74983422e-01 6.08979180e-01 -1.68953415e-01
2.21962723e-01 2.91980467e-01 9.30311153e-01
-6.19233975e-01 -2.09288587e-01 -7.56801479e-01
3.42193711e-01 8.48358784e-01 4.03968258e-01
-9.34235491e-01 -3.10163740e-01 -1.76075869e-01
-2.15501644e-01 -7.46406209e-01 -6.29632882e-01
4.74489628e-02 -9.94188288e-01 -9.66351865e-02
-1.13121846e-01 6.91355581e-01 -7.13604768e-01
