2.71532286e-01 -8.11373654e-01 5.17636124e-01
7.79334021e-01 -4.68322326e-01 4.16312404e-01
-3.48959794e-01 -6.48504510e-01 6.76516357e-01
6.26646133e-01 4.40868736e-02 7.78059897e-01
-6.17588180e-03 9.99450821e-01 3.25603342e-02
3.48959794e-01 6.48504510e-01 6.76516357e-01
7.33343669e-01 -6.13802159e-01 -2.92321108e-01
-8.48313383e-01 -4.82057464e-01 2.19058804e-01
3.29758294e-01 9.42224718e-01 5.89280978e-02
5.52036608e-01 -8.31416230e-01 -6.32623847e-02
-3.88193093e-01 2.34991925e-01 8.91118430e-01
3.32057504e-02 9.29074145e-01 3.68404073e-01
4.63748077e-01 -2.65189559e-01 -8.45343391e-01
-1.56573085e-01 -4.34581273e-01 8.86922257e-01
1.51648663e-01 -3.98585806e-01 -9.04502512e-01
7.96016130e-01 2.81175525e-01 5.36006472e-01
4.93983021e-01 8.38574737e-01 -2.29720147e-01
8.57659615e-01 -7.33862479e-02 5.08958269e-01
-4.63748077e-01 2.65189559e-01 -8.45343391e-01
-1.73458562e-01 -2.94329737e-01 -9.39826902e-01
-2.42317000e-01 9.45804878e-01 -2.16180184e-01
-3.32057504e-02 -9.29074146e-01 3.68404073e-01
-5.52036608e-01 8.31416230e-01 -6.32623847e-02
-9.20869308e-02 8.43002275e-01 -5.29965014e-01
-7.79334021e-01 4.68322326e-01 4.16312404e-01
-2.91313905e-01 -7.82913087e-01 -5.49708016e-01
1.63116467e-01 -6.16992486e-02 -9.84671688e-01
3.13260183e-01 -9.33355846e-01 1.75260737e-01
-1.90816388e-01 5.16218904e-01 8.34933432e-01
-7.17962860e-01 8.63290476e-02 -6.90703334e-01
-8.31686873e-01 -4.01233277e-01 -3.83804284e-01
5.19438672e-01 3.66817398e-01 7.71773700e-01
-7.96016130e-01 -2.81175525e-01 5.36006472e-01
-3.16361332e-01 6.27326975e-01 -7.11597270e-01
-3.29758294e-01 -9.42224718e-01 5.89280979e-02
7.37058393e-02 6.31332947e-01 -7.71997394e-01
-8.57659615e-01 7.33862479e-02 5.08958269e-01
3.16361332e-01 -6.27326975e-01 -7.11597270e-01
-9.05533667e-01 -6.73974910e-02 -4.18883041e-01
9.05533666e-01 6.73974909e-02 -4.18883041e-01
-6.25989860e-01 4.78341712e-01 -6.15890387e-01
8.55975875e-01 -2.81370898e-01 -4.33742142e-01
-2.71532286e-01 8.11373654e-01 5.17636124e-01
6.86059999e-01 2.78298044e-01 -6.72210155e-01
-5.71622319e-02 1.70004052e-01 9.83788078e-01
1.56573085e-01 4.34581273e-01 8.86922257e-01
-4.93983021e-01 -8.38574737e-01 -2.29720147e-01
-5.74185783e-01 7.50100942e-01 3.28118717e-01
-6.00296424e-01 -6.26657404e-01 -4.96931304e-01
-6.26646133e-01 -4.40868734e-02 7.78059897e-01
5.74185783e-01 -7.50100942e-01 3.28118717e-01
-9.94749266e-01 3.23762606e-02 -9.70819137e-02
1.90816388e-01 -5.16218904e-01 8.34933432e-01
6.00296424e-01 6.26657404e-01 -4.96931304e-01
4.59067069e-01 -7.76759161e-01 -4.31160270e-01
-2.52795214e-02 -7.37576464e-01 6.74794273e-01
-7.88099269e-01 6.09288321e-01 8.75670363e-02
3.05075417e-01 1.12387158e-01 9.45677372e-01
-9.23029721e-01 3.68002833e-01 -1.12201379e-01
6.60498797e-01 -2.95520065e-01 6.90228048e-01
1.73458562e-01 2.94329737e-01 -9.39826902e-01
5.71622320e-02 -1.70004051e-01 9.83788078e-01
-3.62710572e-01 -8.43272218e-01 3.96656254e-01
9.47287663e-01 -2.40412996e-01 2.11776702e-01
-4.12756893e-01 -4.88213224e-01 -7.68943064e-01
-6.41313583e-01 -5.96693281e-01 4.82366956e-01
9.20869308e-02 -8.43002275e-01 -5.29965014e-01
2.42317000e-01 -9.45804878e-01 -2.16180184e-01
-7.63566154e-01 -6.33072963e-01 -1.27217659e-01
7.17962860e-01 -8.63290477e-02 -6.90703334e-01
-4.83724990e-01 5.81976647e-01 6.53696070e-01
-6.86059999e-01 -2.78298044e-01 -6.72210155e-01
-1.44058462e-01 -9.48798566e-01 -2.81115969e-01
4.83724990e-01 -5.81976647e-01 6.53696070e-01
-9.47649214e-01 -3.10748435e-01 -7.34560393e-02
7.88099269e-01 -6.09288321e-01 8.75670364e-02
-3.13260183e-01 9.33355846e-01 1.75260737e-01
9.62022633e-01 1.32285146e-01 2.38778152e-01
8.48313383e-01 4.82057464e-01 2.19058804e-01
-6.60498797e-01 2.95520065e-01 6.90228048e-01
-5.19438672e-01 -3.66817398e-01 7.71773700e-01
-4.59067069e-01 7.76759161e-01 -4.31160270e-01
-1.51648663e-01 3.98585806e-01 -9.04502512e-01
-7.37058394e-02 -6.31332947e-01 -7.71997394e-01
-7.33343669e-01 6.13802159e-01 -2.92321108e-01
-9.47287663e-01 2.40412996e-01 2.11776703e-01
2.91313905e-01 7.82913087e-01 -5.49708016e-01
-1.63116467e-01 6.16992486e-02 -9.84671688e-01
6.23327644e-01 7.66376886e-01 1.55339503e-01
1.44058462e-01 9.48798566e-01 -2.81115969e-01
-8.55975875e-01 2.81370898e-01 -4.33742142e-01
-6.23327644e-01 -7.66376886e-01 1.55339503e-01
6.41313583e-01 5.96693281e-01 4.82366955e-01
3.88193093e-01 -2.34991925e-01 8.91118430e-01
-3.05075417e-01 -1.12387158e-01 9.45677372e-01
4.12756893e-01 4.88213223e-01 -7.68943064e-01
9.94749266e-01 -3.23762606e-02 -9.70819137e-02
9.47649214e-01 3.10748435e-01 -7.34560393e-02
2.52795214e-02 7.37576464e-01 6.74794273e-01
9.23029721e-01 -3.68002833e-01 -1.12201379e-01
6.17588177e-03 -9.99450821e-01 3.25603343e-02
8.31686873e-01 4.01233277e-01 -3.83804284e-01
-4.65490678e-01 -1.04988825e-01 -8.78799600e-01
6.25989860e-01 -4.78341712e-01 -6.15890387e-01
3.62710572e-01 8.43272218e-01 3.96656254e-01
4.65490678e-01 1.04988825e-01 -8.78799600e-01
7.63566154e-01 6.33072963e-01 -1.27217659e-01
-9.62022633e-01 -1.32285146e-01 2.38778152e-01
