-4.12440159e-01 8.53193689e-01 3.19301809e-01
-8.54162143e-01 5.19988923e-01 -4.30740611e-03
1.78480504e-01 8.53525756e-01 4.89528848e-01
-6.81978686e-01 6.53570514e-01 3.28253949e-01
3.98405892e-01 -8.13238415e-01 4.24165093e-01
-8.99257048e-01 -4.33096277e-01 -6.13545178e-02
2.10322037e-01 3.47305064e-02 -9.77015063e-01
-4.68687662e-01 6.21546505e-01 6.27703606e-01
3.60131547e-01 -9.30881782e-01 6.13545179e-02
6.82622570e-01 4.23055303e-01 5.95861258e-01
5.05082181e-01 7.51648831e-01 4.24165093e-01
-5.68238166e-02 -5.38153338e-01 -8.40929271e-01
1.10836219e-01 6.98029689e-01 -7.07438962e-01
-3.64080965e-01 -4.05989142e-01 -8.38223041e-01
2.50992408e-01 -3.08068138e-01 -9.17658343e-01
-6.19243844e-02 9.63628142e-01 2.59973410e-01
-8.28415240e-01 -2.72194228e-01 4.89528848e-01
-4.81511635e-01 8.12647457e-01 -3.28253949e-01
1.41298629e-01 3.71399870e-01 -9.17658343e-01
-8.77001314e-01 3.75297255e-01 3.00034440e-01
-9.03488072e-01 6.15895841e-02 4.24165093e-01
1.45316934e-01 8.93849519e-01 -4.24165093e-01
4.05083136e-01 8.97166054e-01 -1.76070224e-01
1.13483700e-01 -9.47154045e-01 3.00034440e-01
-4.63017525e-01 -8.23325037e-01 -3.28253949e-01
5.74427026e-01 -7.99395314e-01 -1.76070224e-01
-7.40102319e-01 3.59434544e-01 -5.68379597e-01
3.98628160e-01 5.27539464e-01 -7.50198443e-01
5.49093334e-01 -4.45001826e-01 -7.07438962e-01
-6.03981007e-01 -5.58705268e-01 5.68379597e-01
7.85843459e-01 -2.43710261e-01 5.68379597e-01
-4.37642553e-01 3.18287538e-01 -8.40929271e-01
6.49934736e-01 -5.81331529e-01 4.89528848e-01
-3.12299787e-01 9.49973836e-01 4.30740614e-03
-1.66203296e-01 9.39337958e-01 -3.00034440e-01
5.87717129e-02 -8.20664682e-01 -5.68379597e-01
-3.03931232e-01 -7.16668674e-01 6.27703606e-01
-1.69556428e-01 5.18297936e-01 -8.38223041e-01
2.11351633e-01 2.77858688e-02 9.77015063e-01
8.65488643e-01 -4.28185981e-01 2.59973410e-01
-9.65743342e-01 -1.90628101e-01 1.76070224e-01
2.50653545e-02 -8.02696138e-01 5.95861258e-01
3.17782893e-01 9.31672318e-01 1.76070224e-01
-7.37159113e-01 5.95518931e-01 -3.19301809e-01
-8.46754857e-01 -3.21076603e-01 -4.24165093e-01
-6.56176658e-01 8.14523813e-02 -7.50198443e-01
2.20324540e-01 -9.40144097e-01 -2.59973410e-01
-9.24350941e-01 2.79265400e-01 -2.59973410e-01
-8.16125483e-02 -1.96928818e-01 9.77015063e-01
2.57548498e-01 -6.08991846e-01 -7.50198443e-01
7.45561453e-02 9.95327586e-01 -6.13545178e-02
-8.71754698e-01 2.01309159e-02 -4.89528848e-01
-1.47154967e-01 -9.36157984e-01 -3.19301809e-01
-3.67587163e-01 -9.29989074e-01 -2.06788125e-11
-8.03564259e-01 -5.35442161e-01 2.59973410e-01
-6.59929553e-01 -2.53027863e-01 -7.07438962e-01
6.81330606e-01 4.61230137e-01 -5.68379597e-01
-2.08905565e-01 7.75440408e-01 -5.95861258e-01
9.44529160e-01 1.06775798e-02 -3.28253949e-01
5.36988239e-01 -6.69446956e-02 8.40929271e-01
-6.66551582e-01 -7.45446467e-01 4.30740616e-03
8.84314079e-01 3.40639053e-01 -3.19301809e-01
1.50813614e-01 3.67638981e-01 9.17658343e-01
7.04026401e-01 6.60878697e-01 -2.59973410e-01
8.24700902e-01 -5.62231309e-01 -6.13545178e-02
-5.67098310e-01 -5.68637731e-01 -5.95861258e-01
-1.81862452e-01 8.02415530e-01 5.68379597e-01
9.06998011e-01 2.63825610e-01 3.28253949e-01
4.78097809e-01 2.62306344e-01 8.38223041e-01
7.76003875e-01 -2.06802677e-01 -5.95861258e-01
5.33637394e-01 -1.12308794e-01 -8.38223041e-01
-9.79510163e-01 -9.77707404e-02 -1.76070224e-01
-2.68192644e-01 -7.30794696e-01 -6.27703606e-01
3.08593580e-01 -6.35845985e-01 7.07438962e-01
7.01437924e-01 -5.72772916e-01 -4.24165093e-01
-6.21600582e-01 7.83334358e-01 -3.33705027e-11
7.72618894e-01 9.51221694e-02 6.27703606e-01
9.45107488e-01 -6.94131894e-02 3.19301809e-01
-2.25019325e-01 -9.17396124e-01 3.28253949e-01
-2.32425461e-02 -9.99720576e-01 -4.30740614e-03
-3.26469927e-01 -4.31573109e-01 8.40929271e-01
-9.86233045e-01 1.53557823e-01 6.13545178e-02
-1.18849467e-02 -5.45198020e-01 8.38223041e-01
7.63517614e-01 5.71856789e-01 3.00034440e-01
9.89187745e-01 1.46654716e-01 -3.15324875e-11
-2.10518312e-01 4.98517804e-01 8.40929271e-01
6.97782604e-02 6.57520563e-01 7.50198443e-01
-1.29739085e-01 1.69142949e-01 9.77015063e-01
2.42977889e-01 -3.14427912e-01 9.17658343e-01
-7.07687924e-01 3.79640835e-01 5.95861258e-01
-7.30388886e-01 -6.13605255e-01 -3.00034440e-01
9.78851368e-01 -2.04527369e-01 4.30740610e-03
8.96592182e-01 -3.25732703e-01 -3.00034440e-01
-4.66212862e-01 2.82891676e-01 8.38223041e-01
4.94466370e-01 2.19865800e-01 -8.40929271e-01
-3.92291037e-01 -6.33317331e-02 -9.17658343e-01
4.53311233e-01 7.44896256e-01 -4.89528848e-01
7.66983094e-01 1.33135705e-01 -6.27703606e-01
-5.32667329e-01 -7.83780499e-01 3.19301809e-01
-7.04955566e-01 5.06731128e-02 7.07438962e-01
-4.98790450e-01 5.97658991e-01 -6.27703606e-01
-1.35238519e-01 1.64778974e-01 -9.77015063e-01
4.18443464e-01 -7.65027172e-01 -4.89528848e-01
3.96361986e-01 5.85172872e-01 7.07438962e-01
-7.50835176e-02 -1.99509480e-01 -9.77015063e-01
-6.04318641e-01 -2.68330535e-01 7.50198443e-01
5.34540381e-01 -3.89190028e-01 7.50198443e-01
6.47960450e-01 -7.41044217e-01 1.76070225e-01
8.77404689e-01 4.79731653e-01 -4.30740611e-03
-3.93791504e-01 -5.32110691e-02 9.17658343e-01
6.26101498e-01 7.77323959e-01 6.13545178e-02
