4.94566479e-01 -6.60960717e-01 5.64388553e-01
-1.03390920e-01 3.37111812e-01 9.35769806e-01
-2.40251933e-01 -2.58095069e-01 9.35769806e-01
-7.07840835e-01 -6.04794060e-01 -3.64946317e-01
-1.90585208e-01 -9.25871906e-01 3.26248691e-01
-7.85118278e-01 -1.09305231e-01 -6.09624626e-01
-3.33566559e-01 2.00690473e-01 -9.21117520e-01
-6.79357554e-01 -7.32116286e-01 -4.97905745e-02
5.25194957e-01 1.81932931e-01 8.31306167e-01
-3.49476218e-01 5.40814413e-02 9.35382680e-01
4.51008294e-01 4.98417814e-01 7.40385412e-01
9.73710079e-01 -2.22282757e-01 -4.97905743e-02
-3.76027549e-01 7.28784023e-01 -5.72256610e-01
-9.86256652e-01 1.62943265e-01 -2.73373909e-02
3.40586327e-01 1.88531877e-01 -9.21117520e-01
1.14001083e-01 5.90036205e-01 7.99287392e-01
4.45789443e-01 -8.30204442e-01 -3.34712785e-01
-6.24026252e-01 1.37798496e-01 -7.69157643e-01
-9.85473296e-01 -1.67797291e-01 -2.62006791e-02
2.97898032e-01 7.34584990e-01 -6.09624626e-01
-8.25068288e-01 2.89593526e-01 4.85177790e-01
1.65254378e-01 -8.36645539e-01 -5.22221875e-01
9.06648486e-02 -9.81753848e-01 1.67149997e-01
2.21574011e-01 2.75614562e-01 9.35382680e-01
-7.01976835e-03 -3.89222350e-01 -9.21117520e-01
3.52015319e-01 -9.35594948e-01 -2.73373909e-02
7.15754457e-01 -6.04794167e-01 -3.49170269e-01
1.83721606e-01 9.39320078e-01 2.89696238e-01
6.38053364e-01 -7.69546263e-01 -2.62006792e-02
-1.80176976e-01 -1.05963317e-01 -9.77910468e-01
-6.57146636e-01 1.41375733e-01 7.40385412e-01
9.67026403e-01 3.75629884e-02 -2.51891200e-01
-8.95556197e-01 4.12358862e-01 1.67149997e-01
7.26152946e-01 -3.96804657e-01 5.61469033e-01
2.67869791e-02 9.99128612e-01 -3.20078417e-02
8.19159252e-01 -3.87426015e-02 -5.72256610e-01
-7.42174628e-01 6.68929663e-01 -4.13516952e-02
-4.30038458e-01 -5.14850387e-01 7.41616720e-01
5.14445918e-01 8.07649351e-01 2.88179931e-01
-9.41872858e-01 2.90372383e-02 -3.34712785e-01
8.27370977e-02 -9.73015017e-01 -2.15398551e-01
-1.05038939e-01 -5.45798641e-01 8.31306167e-01
8.73532913e-01 -4.95702696e-02 4.84234053e-01
-7.06535987e-01 6.27987585e-01 3.26248691e-01
-5.15496648e-01 8.41844390e-01 1.59878356e-01
-9.56667815e-01 4.16985585e-02 2.88179931e-01
-6.02075003e-11 -7.47623837e-11 9.99999565e-01
4.53985801e-01 -3.93745937e-01 7.99287392e-01
8.77687437e-01 -3.10611115e-01 -3.64946317e-01
9.50397396e-01 3.08277250e-01 -4.13516951e-02
1.27902207e-01 -3.29696003e-01 9.35382680e-01
8.04891349e-01 5.69394986e-01 1.67149997e-01
-8.07183479e-01 2.75208280e-01 -5.22221875e-01
-4.94839193e-01 -1.56450616e-01 -8.54785424e-01
3.47419931e-01 9.37343554e-01 -2.62006790e-02
6.63329494e-01 5.69733334e-01 4.85177790e-01
6.77340501e-01 -3.50477913e-01 -6.46819636e-01
-6.42193026e-01 -4.11355124e-01 -6.46819636e-01
1.65889885e-01 9.22258626e-01 -3.49170269e-01
8.97121195e-01 2.97884321e-01 3.26248691e-01
1.61738794e-01 -8.59326860e-01 4.85177790e-01
8.01287174e-01 5.58159937e-01 -2.15398551e-01
7.48205053e-01 2.54833904e-01 6.12575177e-01
-4.20156019e-01 3.63865710e-01 8.31306167e-01
8.54940570e-01 2.95296775e-01 -4.26470171e-01
-3.93837344e-01 7.81286828e-01 4.84234053e-01
4.96083415e-01 8.01167203e-01 -3.34712785e-01
-2.19709174e-01 5.13018177e-01 -8.29783677e-01
-4.71310304e-01 -8.67355388e-01 1.59878356e-01
-8.84024272e-01 4.14855080e-01 -2.15398551e-01
-5.67986885e-01 -1.96290269e-01 7.99287392e-01
-1.70052264e-01 9.45586131e-01 2.77396567e-01
-4.43131703e-01 -6.90041421e-01 -5.72256610e-01
4.42221896e-01 -8.49347910e-01 2.88179931e-01
3.43642853e-01 -7.90167431e-02 9.35769806e-01
-2.94352525e-01 9.54399043e-01 -4.97905744e-02
-1.27990275e-01 -6.91938800e-01 -7.10520798e-01
-5.16043704e-01 8.18687937e-01 -2.51891200e-01
-5.94795161e-01 5.20547632e-01 6.12575177e-01
-2.08222768e-01 -9.77206914e-01 -4.13516953e-02
-1.94335603e-02 8.27269227e-01 5.61469033e-01
-8.81644341e-01 -3.17464459e-01 -3.49170269e-01
-2.30854285e-01 6.29849423e-01 7.41616720e-01
-1.69846602e-01 9.15405175e-01 -3.64946317e-01
4.87220246e-01 -6.25279758e-01 -6.09624626e-01
8.51877270e-01 -5.22762510e-01 -3.20078417e-02
-4.50982699e-01 -8.56250925e-01 -2.51891200e-01
4.31350124e-01 4.71523339e-01 -7.69157643e-01
-4.79695569e-01 -7.31716559e-01 4.84234053e-01
-9.05335853e-01 -3.10552461e-01 2.89696238e-01
9.03927743e-01 -3.25523485e-01 2.77396567e-01
-3.34432186e-01 -4.46782815e-01 -8.29783677e-01
3.25125532e-01 7.58787493e-01 5.64388553e-01
-5.35241441e-01 4.56812230e-01 -7.10520798e-01
1.92676128e-01 -6.09321834e-01 -7.69157643e-01
6.34241333e-01 7.72651683e-01 -2.73373909e-02
-8.78664249e-01 -4.76366102e-01 -3.20078418e-02
6.60892743e-01 -1.14999036e-01 7.41616720e-01
6.41929102e-01 5.61437259e-01 -5.22221875e-01
-1.53409892e-01 -7.75381535e-01 6.12575177e-01
3.82909804e-01 -3.50318004e-01 -8.54785424e-01
-8.19692011e-01 -9.78267761e-02 5.64388553e-01
-7.06719386e-01 -4.30464570e-01 5.61469033e-01
7.21614247e-01 -6.28767617e-01 2.89696238e-01
2.06138341e-01 -6.39793547e-01 7.40385412e-01
9.86806952e-01 2.55109980e-02 1.59878356e-01
-7.33875479e-01 -6.20062646e-01 2.77396567e-01
1.11929389e-01 5.06768620e-01 -8.54785424e-01
-6.83204794e-01 5.92751865e-01 -4.26470171e-01
6.63231716e-01 2.35126570e-01 -7.10520797e-01
1.81855413e-01 -1.03056180e-01 -9.77910468e-01
-3.51474741e-02 7.61833037e-01 -6.46819636e-01
-1.67843674e-03 2.09019497e-01 -9.77910468e-01
-1.71735776e-01 -8.88048640e-01 -4.26470171e-01
5.54141361e-01 -6.62353618e-02 -8.29783677e-01
