8.59337928e-01 -4.99642285e-01 1.09015617e-01
3.05710258e-01 -6.04998086e-01 7.35189896e-01
-5.13624336e-01 2.06839804e-01 8.32713315e-01
7.60522455e-01 -6.25779734e-01 -1.73179481e-01
5.24415953e-01 -1.78003181e-01 -8.32645968e-01
-2.21360163e-11 -1.32536431e-01 9.91176243e-01
-1.88472799e-01 -8.58627215e-01 4.76673185e-01
9.46683398e-01 -2.94466031e-01 -1.30666214e-01
3.64148997e-11 1.83437893e-01 -9.83033798e-01
-9.99815079e-01 1.88316400e-02 -3.95092591e-03
-3.06600890e-01 -3.02516990e-01 9.02480909e-01
-7.68227030e-01 6.04504000e-01 2.10750606e-01
2.71240188e-01 4.22621838e-02 9.61583557e-01
1.89274986e-12 -7.14209687e-01 6.99919767e-01
8.11393056e-01 -1.93331401e-01 5.51597187e-01
1.88472799e-01 -8.58627215e-01 4.76673185e-01
-8.04796851e-01 2.07502510e-01 -5.56102407e-01
-7.52128864e-01 5.09337938e-01 -4.18197310e-01
-3.05710258e-01 -6.04998086e-01 7.35189896e-01
-2.54923728e-01 6.50559400e-01 -7.15403214e-01
7.52128864e-01 5.09337938e-01 -4.18197310e-01
-3.11249016e-01 -6.56149183e-01 -6.87442936e-01
3.11249016e-01 -6.56149183e-01 -6.87442936e-01
3.05710072e-01 -8.59251540e-01 -4.10132646e-01
3.06600890e-01 -3.02516990e-01 9.02480909e-01
-9.46683398e-01 -2.94466031e-01 -1.30666214e-01
-9.46230614e-01 -2.15908508e-01 2.40885925e-01
-2.07960117e-12 -1.95014807e-01 -9.80798387e-01
-7.73133180e-01 -1.27859300e-01 -6.21220260e-01
4.97055137e-01 7.06516974e-01 -5.03772251e-01
2.98445639e-01 3.39740590e-01 -8.91916448e-01
-7.98940635e-01 5.91320564e-01 -1.09760910e-01
7.96213758e-01 3.98399842e-01 4.55335041e-01
-9.33793415e-01 9.62547391e-02 3.44625646e-01
9.33793415e-01 9.62547391e-02 3.44625646e-01
3.61765880e-01 -9.10197550e-01 2.01605808e-01
2.62221904e-01 4.23849069e-01 8.66949079e-01
7.73133180e-01 -1.27859300e-01 -6.21220260e-01
3.77016437e-11 9.86062606e-01 1.66442094e-01
-5.77507946e-01 1.39030717e-01 -8.04461804e-01
-5.57008874e-01 4.84238034e-01 6.74733449e-01
-6.60968157e-11 2.47961186e-01 9.68772532e-01
3.85113600e-11 -9.76569208e-01 2.15151316e-01
5.13624336e-01 2.06839804e-01 8.32713315e-01
5.04315442e-01 -8.53747514e-01 -1.29466924e-01
-7.61573942e-01 1.26118903e-01 6.35689843e-01
4.24293779e-11 5.09643403e-01 -8.60392865e-01
6.57854557e-11 -9.43197303e-01 -3.32201014e-01
-5.80322233e-01 -4.31157274e-01 6.90882876e-01
5.58389295e-01 4.45446107e-01 -6.99849881e-01
1.89959121e-01 -9.79274395e-01 -7.01059499e-02
-2.98445639e-01 3.39740590e-01 -8.91916448e-01
9.46230614e-01 -2.15908508e-01 2.40885925e-01
-1.99486224e-11 8.55508424e-01 5.17807424e-01
5.82170445e-01 -6.82954197e-01 -4.41175516e-01
9.31751430e-01 2.80474235e-01 -2.30608020e-01
7.57024198e-01 -5.01470272e-01 4.18843832e-01
2.58990251e-11 9.79340064e-01 -2.02276015e-01
1.57074066e-12 6.08330640e-01 7.93692114e-01
5.57008874e-01 4.84238033e-01 6.74733449e-01
-9.37487582e-01 -4.07136308e-02 -3.45628056e-01
7.68227030e-01 6.04504000e-01 2.10750606e-01
-2.54445635e-01 8.87810446e-01 -3.83497869e-01
-3.61765880e-01 -9.10197551e-01 2.01605808e-01
-5.74465864e-01 -1.22615686e-01 8.09290414e-01
2.81980529e-01 9.58955634e-01 -3.02163640e-02
5.74465864e-01 -1.22615686e-01 8.09290414e-01
-2.81980529e-01 9.58955634e-01 -3.02163640e-02
2.75331769e-01 -3.75317962e-01 -8.85054180e-01
2.54445635e-01 8.87810446e-01 -3.83497869e-01
-9.31751430e-01 2.80474235e-01 -2.30608020e-01
-1.19839013e-11 -7.85946814e-01 -6.18279933e-01
-9.36465913e-01 3.34008387e-01 1.07133342e-01
5.80322233e-01 -4.31157274e-01 6.90882876e-01
-5.85819643e-01 -4.52540315e-01 -6.72318931e-01
-2.75331769e-01 -3.75317962e-01 -8.85054180e-01
-2.62221904e-01 4.23849069e-01 8.66949079e-01
2.75246207e-01 -7.05136756e-04 -9.61373865e-01
5.45069216e-01 8.29670577e-01 1.20686258e-01
-7.57024198e-01 -5.01470272e-01 4.18843833e-01
3.71536934e-11 -4.50646554e-01 8.92696325e-01
-1.89959120e-01 -9.79274395e-01 -7.01059499e-02
5.57997936e-01 8.04667597e-01 -2.02896314e-01
-2.75246207e-01 -7.05136779e-04 -9.61373865e-01
-5.58389295e-01 4.45446107e-01 -6.99849881e-01
-8.15760200e-01 -3.95266113e-01 -4.22245499e-01
-6.45709417e-01 -7.45833755e-01 1.63628177e-01
-8.11393056e-01 -1.93331401e-01 5.51597187e-01
7.98940635e-01 5.91320564e-01 -1.09760910e-01
9.99815079e-01 1.88316400e-02 -3.95092598e-03
-5.04315442e-01 -8.53747514e-01 -1.29466924e-01
-5.45069216e-01 8.29670577e-01 1.20686258e-01
7.61573942e-01 1.26118903e-01 6.35689843e-01
-5.57997936e-01 8.04667597e-01 -2.02896314e-01
2.78325145e-01 9.00760694e-01 3.33445118e-01
-4.97055137e-01 7.06516974e-01 -5.03772251e-01
-3.05710071e-01 -8.59251540e-01 -4.10132646e-01
5.01861517e-01 -7.20575915e-01 4.78422971e-01
-5.47461575e-01 7.10846200e-01 4.41587412e-01
-7.96213758e-01 3.98399842e-01 4.55335041e-01
5.85819644e-01 -4.52540315e-01 -6.72318931e-01
-2.81658536e-01 7.09453235e-01 6.46034315e-01
-2.77504689e-11 8.13434217e-01 -5.81673277e-01
-7.60522455e-01 -6.25779734e-01 -1.73179481e-01
-5.24415953e-01 -1.78003181e-01 -8.32645968e-01
5.77507947e-01 1.39030718e-01 -8.04461804e-01
2.81658536e-01 7.09453235e-01 6.46034315e-01
2.54923728e-01 6.50559400e-01 -7.15403214e-01
-2.78325145e-01 9.00760694e-01 3.33445118e-01
8.04796851e-01 2.07502510e-01 -5.56102407e-01
-2.71240188e-01 4.22621839e-02 9.61583557e-01
-8.59337928e-01 -4.99642285e-01 1.09015617e-01
-5.82170445e-01 -6.82954197e-01 -4.41175516e-01
-5.01861517e-01 -7.20575915e-01 4.78422971e-01
6.45709417e-01 -7.45833755e-01 1.63628177e-01
9.37487582e-01 -4.07136309e-02 -3.45628056e-01
8.29452658e-12 -5.42591323e-01 -8.39989794e-01
9.36465913e-01 3.34008387e-01 1.07133342e-01
8.15760200e-01 -3.95266113e-01 -4.22245499e-01
5.47461575e-01 7.10846200e-01 4.41587412e-01
