5.14071992e-01 -1.10105354e-01 8.50650808e-01
5.41405672e-02 -5.22935944e-01 8.50650808e-01
-3.93752179e-01 8.55758210e-01 -3.35614523e-01
-5.54962106e-01 -2.46051480e-01 -7.94654472e-01
-2.04762608e-01 -7.27566666e-01 -6.54766387e-01
5.54962106e-01 2.46051480e-01 7.94654472e-01
-4.05501586e-01 4.51766238e-01 -7.94654472e-01
9.35550537e-01 1.10036745e-01 3.35614522e-01
-8.65246667e-01 5.01346393e-01 5.04738639e-11
-5.29390627e-01 -5.39468759e-01 -6.54766387e-01
2.09432829e-01 9.77823036e-01 9.16703788e-11
7.55232144e-01 3.00896514e-02 6.54766387e-01
3.49474579e-01 -6.70185420e-01 -6.54766387e-01
5.97454042e-01 -6.65619011e-01 -4.47213596e-01
-5.97454042e-01 6.65619011e-01 4.47213596e-01
4.26470714e-01 7.36022777e-01 -5.25731112e-01
-8.08411632e-01 4.83563363e-01 -3.35614522e-01
8.21554259e-01 -4.60881211e-01 -3.35614523e-01
-4.92445963e-01 -8.49885896e-01 1.87592474e-01
2.63573397e-01 4.54887092e-01 8.50650808e-01
-9.35550537e-01 -1.10036745e-01 -3.35614522e-01
-3.28667309e-02 3.17455021e-01 9.47703586e-01
-2.61996526e-01 7.08970238e-01 -6.54766387e-01
8.31785956e-01 -1.78154206e-01 -5.25731112e-01
-5.14071992e-01 1.10105354e-01 -8.50650808e-01
-4.05315242e-01 9.14176982e-01 3.91301842e-11
-8.21554259e-01 4.60881212e-01 3.35614523e-01
-9.60463691e-01 2.05714757e-01 1.87592474e-01
-8.97947549e-01 -3.98119659e-01 -1.87592474e-01
-7.09709020e-01 -6.19415853e-01 -3.35614523e-01
8.74591511e-01 -1.87322417e-01 4.47213596e-01
-7.45377795e-01 -1.25271391e-01 6.54766387e-01
-4.48417846e-01 -7.73900146e-01 -4.47213596e-01
2.10083155e-01 9.18274447e-01 -3.35614522e-01
-8.76012779e-02 8.46128131e-01 5.25731112e-01
-1.11194233e-01 -7.47607398e-01 6.54766387e-01
1.60005636e-01 2.76145087e-01 -9.47703586e-01
3.04348343e-01 5.25258371e-01 -7.94654472e-01
1.84449851e-01 9.23764659e-01 3.35614522e-01
2.13185124e-01 -2.37507928e-01 9.47703586e-01
-3.49474578e-01 6.70185420e-01 6.54766387e-01
-1.01990890e-01 9.85115325e-01 -1.38367823e-01
6.76655979e-01 -3.36775391e-01 6.54766387e-01
-6.25161421e-02 6.03834416e-01 7.94654472e-01
4.80611282e-01 2.13086833e-01 -8.50650808e-01
-5.41405673e-02 5.22935944e-01 -8.50650808e-01
-8.31785956e-01 1.78154206e-01 5.25731112e-01
-8.17664750e-01 -3.62524973e-01 4.47213595e-01
5.93599206e-01 -1.27138712e-01 -7.94654472e-01
8.17664750e-01 3.62524973e-01 -4.47213596e-01
2.91761288e-01 1.29357115e-01 9.47703586e-01
-9.68417268e-01 2.07418276e-01 -1.38367823e-01
-1.60005636e-01 -2.76145087e-01 9.47703586e-01
-6.56115348e-01 7.30973128e-01 -1.87592474e-01
-2.13185124e-01 2.37507928e-01 -9.47703586e-01
-2.63573397e-01 -4.54887092e-01 -8.50650808e-01
-6.28681893e-01 4.19571277e-01 6.54766387e-01
-4.26470714e-01 -7.36022777e-01 5.25731112e-01
8.76012779e-02 -8.46128131e-01 -5.25731112e-01
-5.93599206e-01 1.27138712e-01 7.94654472e-01
3.69787335e-01 -8.66383413e-01 -3.35614523e-01
-8.74591512e-01 1.87322417e-01 -4.47213595e-01
6.61548623e-01 -7.37026298e-01 -1.38367823e-01
-6.76655980e-01 3.36775391e-01 -6.54766387e-01
1.01153243e-01 -9.77024608e-01 -1.87592474e-01
1.01990890e-01 -9.85115325e-01 1.38367823e-01
-2.10083155e-01 -9.18274447e-01 3.35614522e-01
-9.94683274e-01 -1.02981478e-01 3.35022098e-11
2.04762608e-01 7.27566666e-01 6.54766387e-01
2.61996526e-01 -7.08970238e-01 6.54766387e-01
-5.68212559e-01 6.33041298e-01 -5.25731112e-01
5.93309386e-01 4.68257356e-01 -6.54766387e-01
3.51174675e-01 -3.91241038e-01 -8.50650808e-01
4.96523896e-01 8.56923781e-01 1.38367823e-01
7.77645389e-01 3.44781738e-01 5.25731112e-01
-4.96523896e-01 -8.56923781e-01 -1.38367823e-01
-9.21094345e-02 8.89671766e-01 -4.47213595e-01
6.28681893e-01 -4.19571277e-01 -6.54766387e-01
4.05501586e-01 -4.51766238e-01 7.94654472e-01
7.44184678e-01 6.67973925e-01 -4.24839223e-11
-7.44184678e-01 -6.67973925e-01 -6.48897318e-11
-5.89538848e-13 5.62244663e-11 -1.00000000e-00
7.09709020e-01 6.19415853e-01 3.35614523e-01
6.56115348e-01 -7.30973128e-01 1.87592474e-01
-2.09432829e-01 -9.77823036e-01 -8.24261914e-11
1.11194233e-01 7.47607398e-01 -6.54766387e-01
-7.55232144e-01 -3.00896514e-02 -6.54766387e-01
-6.61548623e-01 7.37026298e-01 1.38367823e-01
8.08411632e-01 -4.83563363e-01 3.35614522e-01
-4.30669969e-12 -6.36073736e-11 1.00000000e-00
-5.93309386e-01 -4.68257356e-01 6.54766387e-01
-9.38250162e-01 -8.39614565e-02 3.35614523e-01
-3.12074045e-01 6.68408779e-02 9.47703586e-01
8.65246667e-01 -5.01346393e-01 -4.12297293e-11
5.68212559e-01 -6.33041298e-01 5.25731112e-01
6.92198307e-01 6.38924405e-01 -3.35614522e-01
-1.84449851e-01 -9.23764659e-01 -3.35614522e-01
-4.80611282e-01 -2.13086833e-01 8.50650808e-01
9.05383431e-01 4.01416478e-01 -1.38367823e-01
9.68417268e-01 -2.07418276e-01 1.38367823e-01
8.97947549e-01 3.98119659e-01 1.87592474e-01
4.48417846e-01 7.73900146e-01 4.47213596e-01
5.29390627e-01 5.39468759e-01 6.54766387e-01
3.28667309e-02 -3.17455021e-01 -9.47703586e-01
-9.05383431e-01 -4.01416478e-01 1.38367823e-01
3.12074045e-01 -6.68408780e-02 -9.47703586e-01
-7.77645389e-01 -3.44781738e-01 -5.25731112e-01
-6.92198307e-01 -6.38924405e-01 3.35614522e-01
7.45377795e-01 1.25271391e-01 -6.54766387e-01
4.92445963e-01 8.49885896e-01 -1.87592474e-01
3.93752179e-01 -8.55758210e-01 3.35614522e-01
-1.01153243e-01 9.77024608e-01 1.87592474e-01
4.05315242e-01 -9.14176982e-01 -2.98860223e-11
9.38250162e-01 8.39614565e-02 -3.35614523e-01
9.21094345e-02 -8.89671767e-01 4.47213595e-01
9.94683274e-01 1.02981478e-01 -2.42580479e-11
-2.91761288e-01 -1.29357115e-01 -9.47703586e-01
6.25161421e-02 -6.03834416e-01 -7.94654472e-01
-3.69787335e-01 8.66383413e-01 3.35614523e-01
9.60463691e-01 -2.05714757e-01 -1.87592474e-01
-3.51174675e-01 3.91241038e-01 8.50650808e-01
-3.04348343e-01 -5.25258371e-01 7.94654472e-01
