4.27462742e-02 9.26845374e-01 3.73001889e-01
-2.48884385e-01 9.38056555e-01 2.41052821e-01
1.69445179e-01 -8.91801522e-01 -4.19497767e-01
-9.93062415e-01 9.24185459e-02 7.27038727e-02
6.64989416e-01 -5.06253453e-01 5.49086986e-01
-1.20002481e-01 7.00287584e-01 -7.03702141e-01
5.95444444e-01 3.87619930e-01 7.03702141e-01
-4.30763217e-01 -8.84116992e-02 -8.98123834e-01
-4.27462742e-02 -9.26845373e-01 3.73001890e-01
9.93062415e-01 -9.24185458e-02 7.27038724e-02
6.60953648e-01 -6.51160399e-01 -3.73001890e-01
-8.59991919e-01 3.98473713e-01 -3.18798681e-01
1.92007252e-01 7.70831780e-01 6.07413847e-01
9.26845374e-01 -4.27462742e-02 3.73001889e-01
9.16317345e-01 -4.00452898e-01 -1.84190814e-11
-7.30060116e-01 6.37966439e-01 2.44971526e-01
-1.44139718e-01 -8.23241899e-01 -5.49086986e-01
-1.80457730e-01 8.03395077e-01 5.67442823e-01
-9.24185458e-02 -9.93062415e-01 7.27038728e-02
-6.37966439e-01 -7.30060116e-01 2.44971527e-01
-8.03395077e-01 -1.80457730e-01 5.67442823e-01
-1.69445179e-01 8.91801522e-01 -4.19497768e-01
-5.76627856e-01 1.86341920e-01 -7.95472818e-01
9.64104832e-01 -1.02424723e-01 -2.44971527e-01
6.37966439e-01 7.30060116e-01 2.44971526e-01
7.40104401e-02 3.05740898e-01 9.49233879e-01
4.81425352e-01 -7.69578621e-01 4.19497768e-01
3.25240868e-02 -6.10284245e-01 7.91514576e-01
5.76627856e-01 -1.86341921e-01 -7.95472818e-01
-3.25240866e-02 6.10284245e-01 7.91514576e-01
3.90681899e-01 -4.69970563e-01 -7.91514576e-01
-2.27722744e-01 3.76186031e-01 8.98123834e-01
9.76015298e-01 2.02049454e-01 -8.10565048e-02
7.42386905e-01 -6.66014888e-01 -7.27038725e-02
-4.13291135e-01 7.12179107e-01 -5.67442823e-01
2.48884385e-01 -9.38056555e-01 2.41052821e-01
-6.64517746e-01 4.35275295e-01 -6.07413848e-01
4.54546085e-01 -8.57485507e-01 -2.41052821e-01
6.51160399e-01 6.60953648e-01 -3.73001890e-01
2.96600485e-01 5.28442190e-01 7.95472818e-01
-5.06253453e-01 -6.64989416e-01 5.49086986e-01
-6.51160399e-01 -6.60953648e-01 -3.73001889e-01
-7.69578621e-01 -4.81425352e-01 4.19497768e-01
-3.90681899e-01 4.69970563e-01 -7.91514576e-01
-1.92007252e-01 -7.70831780e-01 6.07413848e-01
8.57485507e-01 4.54546085e-01 -2.41052821e-01
8.59991919e-01 -3.98473713e-01 -3.18798681e-01
-3.76186031e-01 -2.27722744e-01 8.98123834e-01
6.66014888e-01 7.42386905e-01 -7.27038728e-02
-4.35275296e-01 -6.64517746e-01 -6.07413847e-01
3.76186031e-01 2.27722744e-01 8.98123834e-01
-5.28442189e-01 2.96600485e-01 7.95472818e-01
-5.95444444e-01 -3.87619930e-01 7.03702141e-01
7.70831780e-01 -1.92007252e-01 6.07413848e-01
-4.00452898e-01 -9.16317345e-01 1.78489300e-10
5.28442190e-01 -2.96600485e-01 7.95472818e-01
-8.84116992e-02 4.30763218e-01 -8.98123834e-01
9.24185459e-02 9.93062415e-01 7.27038725e-02
1.43155084e-10 1.42194547e-10 1.00000000e-00
6.64517746e-01 -4.35275296e-01 -6.07413848e-01
-4.69970563e-01 -3.90681899e-01 -7.91514576e-01
1.80457730e-01 -8.03395077e-01 5.67442823e-01
-8.23241898e-01 1.44139718e-01 -5.49086986e-01
-6.64989416e-01 5.06253453e-01 5.49086986e-01
5.14701909e-01 -8.53529020e-01 8.10565048e-02
-8.91801522e-01 -1.69445179e-01 -4.19497767e-01
8.76604402e-01 -3.60460989e-01 3.18798681e-01
1.74104876e-01 2.61997202e-01 -9.49233880e-01
-3.60460988e-01 -8.76604402e-01 3.18798681e-01
8.23241898e-01 -1.44139718e-01 -5.49086986e-01
-7.00287584e-01 -1.20002481e-01 -7.03702141e-01
1.86341920e-01 5.76627856e-01 -7.95472818e-01
-6.10284245e-01 -3.25240867e-02 7.91514576e-01
-9.38056555e-01 -2.48884385e-01 2.41052821e-01
4.00452898e-01 9.16317345e-01 -1.87062764e-10
-1.02424723e-01 -9.64104832e-01 -2.44971526e-01
-6.60953648e-01 6.51160399e-01 -3.73001890e-01
-1.86341921e-01 -5.76627856e-01 -7.95472818e-01
-5.14701909e-01 8.53529020e-01 8.10565047e-02
9.38056555e-01 2.48884385e-01 2.41052821e-01
1.02424723e-01 9.64104832e-01 -2.44971526e-01
-7.12179107e-01 -4.13291135e-01 -5.67442823e-01
3.60460989e-01 8.76604402e-01 3.18798681e-01
7.12179107e-01 4.13291135e-01 -5.67442823e-01
-9.16317345e-01 4.00452898e-01 9.84558614e-12
8.03395077e-01 1.80457730e-01 5.67442823e-01
1.44139718e-01 8.23241898e-01 -5.49086986e-01
-2.61997202e-01 1.74104876e-01 -9.49233880e-01
2.02049454e-01 -9.76015298e-01 -8.10565046e-02
-9.26845374e-01 4.27462743e-02 3.73001890e-01
-7.70831780e-01 1.92007252e-01 6.07413848e-01
7.69578621e-01 4.81425352e-01 4.19497767e-01
5.06253453e-01 6.64989416e-01 5.49086986e-01
-3.98473713e-01 -8.59991920e-01 -3.18798681e-01
-2.96600485e-01 -5.28442189e-01 7.95472818e-01
-3.87619930e-01 5.95444444e-01 7.03702141e-01
-9.76015298e-01 -2.02049454e-01 -8.10565046e-02
4.13291135e-01 -7.12179107e-01 -5.67442823e-01
8.53529020e-01 5.14701909e-01 8.10565045e-02
3.98473713e-01 8.59991919e-01 -3.18798681e-01
2.61997202e-01 -1.74104877e-01 -9.49233879e-01
-9.64104832e-01 1.02424723e-01 -2.44971526e-01
-6.66014888e-01 -7.42386905e-01 -7.27038724e-02
1.20002481e-01 -7.00287585e-01 -7.03702141e-01
3.87619930e-01 -5.95444444e-01 7.03702141e-01
-1.39293743e-10 -1.36951963e-10 -1.00000000e+00
-7.40104399e-02 -3.05740898e-01 9.49233880e-01
6.10284245e-01 3.25240869e-02 7.91514576e-01
-2.02049454e-01 9.76015298e-01 -8.10565048e-02
8.91801522e-01 1.69445179e-01 -4.19497768e-01
-4.54546085e-01 8.57485507e-01 -2.41052821e-01
-4.81425352e-01 7.69578621e-01 4.19497768e-01
4.30763217e-01 8.84116989e-02 -8.98123834e-01
4.69970563e-01 3.90681899e-01 -7.91514576e-01
7.30060116e-01 -6.37966439e-01 2.44971526e-01
-8.76604402e-01 3.60460989e-01 3.18798681e-01
-1.74104876e-01 -2.61997202e-01 -9.49233879e-01
-8.53529020e-01 -5.14701909e-01 8.10565048e-02
7.00287584e-01 1.20002481e-01 -7.03702141e-01
2.27722744e-01 -3.76186031e-01 8.98123834e-01
-7.42386905e-01 6.66014888e-01 -7.27038725e-02
4.35275295e-01 6.64517746e-01 -6.07413848e-01
-3.05740898e-01 7.40104399e-02 9.49233880e-01
8.84116990e-02 -4.30763218e-01 -8.98123834e-01
-8.57485507e-01 -4.54546085e-01 -2.41052821e-01
3.05740898e-01 -7.40104396e-02 9.49233879e-01
