-8.87475394e-01 3.21290676e-01 3.30393057e-01
5.19771986e-01 5.50140157e-01 -6.53592530e-01
4.62502979e-01 2.97876598e-01 -8.35081383e-01
-1.62746140e-01 -8.32375968e-01 5.29777023e-01
-8.94715455e-01 4.45743769e-01 -2.82269309e-02
-2.01184119e-01 9.00252094e-01 -3.86097524e-01
-1.45434762e-01 -2.94570302e-01 -9.44498548e-01
-4.65117868e-01 -8.54499742e-01 -2.31291307e-01
9.84768077e-01 -1.61484101e-01 6.44568849e-02
3.76785572e-01 -4.65589749e-01 -8.00786609e-01
-2.37590228e-02 -7.85422563e-01 -6.18503998e-01
-9.87811713e-02 9.92043248e-01 -7.80545359e-02
-5.79097598e-01 6.09289252e-03 8.15235223e-01
2.30255876e-01 9.72383207e-01 -3.81201910e-02
-4.93990682e-01 7.59921826e-01 4.22482931e-01
8.05384838e-01 -4.74848743e-01 -3.54787402e-01
5.76316136e-11 6.78901974e-13 -1.00000023e+00
5.46391831e-01 -2.06599666e-01 -8.11648276e-01
-5.46391831e-01 2.06599666e-01 -8.11648276e-01
-5.04587903e-01 -7.40884594e-01 4.43261615e-01
-9.08502446e-01 1.16875761e-02 4.17715825e-01
-3.48875002e-01 -2.22723325e-02 -9.36904805e-01
7.45957397e-01 6.59310282e-01 -9.41145973e-02
8.61799482e-01 3.43271490e-01 3.73451687e-01
-3.41636759e-01 -7.82730511e-01 -5.20209107e-01
-2.90285186e-01 -1.37670564e-01 9.46985156e-01
-3.56270991e-01 6.38016488e-01 6.82646045e-01
5.76980029e-01 -8.08473504e-01 1.16036999e-01
-7.45957397e-01 -6.59310282e-01 -9.41145975e-02
-3.46620254e-01 -6.19299045e-01 7.04501784e-01
5.04587903e-01 7.40884594e-01 4.43261615e-01
-6.38865766e-03 -9.70180963e-01 2.42297277e-01
6.70375289e-01 6.84243913e-02 -7.38860893e-01
-5.51287896e-01 -8.30151275e-01 8.32494875e-02
-9.07386678e-01 -4.18984129e-01 3.31918827e-02
-1.76388872e-01 8.49619286e-01 4.97024951e-01
-6.17423283e-01 5.01583268e-01 -6.05972770e-01
7.70381368e-01 -5.95620425e-01 2.27483519e-01
5.51287896e-01 8.30151275e-01 8.32494876e-02
-7.53495380e-01 -1.75923375e-01 6.33478795e-01
-8.70908841e-01 -3.94558149e-01 -2.92987703e-01
-9.43290528e-01 1.95909781e-01 -2.67997132e-01
9.08502446e-01 -1.16875761e-02 4.17715825e-01
3.48875002e-01 2.22723325e-02 -9.36904805e-01
7.87150414e-01 -2.17202416e-01 -5.77250037e-01
9.78652038e-01 1.36816103e-01 1.53367111e-01
-2.20483344e-02 1.57958334e-01 9.87199359e-01
6.75214610e-01 -5.14272808e-01 5.28780165e-01
7.40287732e-01 3.39723799e-01 -5.80139711e-01
-7.87150414e-01 2.17202416e-01 -5.77250037e-01
-1.89738008e-01 2.53107068e-01 -9.48649958e-01
3.46620254e-01 6.19299045e-01 7.04501784e-01
-4.62502979e-01 -2.97876598e-01 -8.35081383e-01
-1.61246828e-01 -4.32851010e-01 8.86926744e-01
1.76388872e-01 -8.49619286e-01 4.97024951e-01
1.62746140e-01 8.32375968e-01 5.29777023e-01
1.45434762e-01 2.94570302e-01 -9.44498548e-01
8.94715455e-01 -4.45743769e-01 -2.82269308e-02
2.36870663e-01 5.73325376e-01 -7.84340913e-01
2.90285185e-01 1.37670564e-01 9.46985156e-01
-8.61799482e-01 -3.43271490e-01 3.73451687e-01
-1.76416878e-01 4.45766337e-01 8.77592758e-01
1.61246828e-01 4.32851010e-01 8.86926744e-01
-8.05384838e-01 4.74848743e-01 -3.54787402e-01
-2.30255876e-01 -9.72383207e-01 -3.81201911e-02
9.79581831e-01 1.16114901e-01 -1.64124473e-01
3.13807632e-01 9.12380422e-01 2.62843324e-01
-9.84768077e-01 1.61484101e-01 6.44568849e-02
7.09441929e-01 -6.90560435e-01 -1.40778194e-01
-8.81346396e-01 -7.20555272e-02 -4.66944053e-01
5.79097598e-01 -6.09289253e-03 8.15235223e-01
8.87475394e-01 -3.21290676e-01 3.30393057e-01
-5.34959636e-01 7.41308937e-01 -4.05313998e-01
-6.75214610e-01 5.14272808e-01 5.28780165e-01
6.59570317e-01 6.41475715e-01 -3.91760243e-01
4.65117868e-01 8.54499742e-01 -2.31291307e-01
2.20483344e-02 -1.57958334e-01 9.87199359e-01
-7.55465017e-01 2.00334254e-01 6.23809669e-01
-3.03163174e-01 7.17981798e-01 -6.26573635e-01
6.93208227e-02 -5.47445735e-01 -8.33965335e-01
-5.18395017e-01 3.71996567e-01 7.69990130e-01
7.53495380e-01 1.75923375e-01 6.33478795e-01
2.01184119e-01 -9.00252094e-01 -3.86097525e-01
-7.70381368e-01 5.95620425e-01 2.27483519e-01
3.32066708e-01 -1.72241791e-01 9.27396374e-01
-2.36870663e-01 -5.73325376e-01 -7.84340913e-01
-9.78652038e-01 -1.36816103e-01 1.53367111e-01
-5.76980029e-01 8.08473504e-01 1.16036999e-01
9.87811712e-02 -9.92043248e-01 -7.80545361e-02
-6.93208226e-02 5.47445735e-01 -8.33965335e-01
-4.94612966e-01 -3.33889687e-01 8.02418417e-01
9.43290528e-01 -1.95909781e-01 -2.67997132e-01
-2.99458786e-01 9.34977776e-01 1.90107617e-01
-4.12063922e-01 8.99511548e-01 -1.45197684e-01
-5.19771986e-01 -5.50140157e-01 -6.53592530e-01
-7.40287732e-01 -3.39723799e-01 -5.80139711e-01
3.41636759e-01 7.82730511e-01 -5.20209107e-01
2.37590228e-02 7.85422563e-01 -6.18503998e-01
4.94612966e-01 3.33889687e-01 8.02418417e-01
-9.79581831e-01 -1.16114901e-01 -1.64124473e-01
2.99458786e-01 -9.34977776e-01 1.90107617e-01
4.12063922e-01 -8.99511548e-01 -1.45197684e-01
5.18395017e-01 -3.71996567e-01 7.69990130e-01
-3.76785572e-01 4.65589749e-01 -8.00786609e-01
6.52361527e-01 4.93958827e-01 5.74829407e-01
-1.13414560e-02 6.76871269e-01 7.36013800e-01
3.56270991e-01 -6.38016488e-01 6.82646046e-01
-1.22889703e-01 -9.34167094e-01 -3.35007638e-01
-7.09441929e-01 6.90560435e-01 -1.40778194e-01
1.89738008e-01 -2.53107067e-01 -9.48649958e-01
6.17423283e-01 -5.01583268e-01 -6.05972770e-01
9.07386678e-01 4.18984129e-01 3.31918827e-02
-3.32066708e-01 1.72241791e-01 9.27396374e-01
6.38865764e-03 9.70180963e-01 2.42297277e-01
-7.42767580e-01 -6.19975441e-01 2.52837213e-01
1.13414559e-02 -6.76871269e-01 7.36013800e-01
1.22889703e-01 9.34167094e-01 -3.35007638e-01
5.34959636e-01 -7.41308937e-01 -4.05313998e-01
3.03163174e-01 -7.17981798e-01 -6.26573635e-01
-6.52361527e-01 -4.93958827e-01 5.74829407e-01
8.81346396e-01 7.20555271e-02 -4.66944053e-01
-3.13807632e-01 -9.12380422e-01 2.62843324e-01
-6.59570317e-01 -6.41475715e-01 -3.91760243e-01
4.93990682e-01 -7.59921826e-01 4.22482931e-01
7.55465017e-01 -2.00334254e-01 6.23809669e-01
1.76416878e-01 -4.45766337e-01 8.77592758e-01
7.42767580e-01 6.19975441e-01 2.52837213e-01
-6.70375289e-01 -6.84243913e-02 -7.38860893e-01
8.70908841e-01 3.94558149e-01 -2.92987703e-01
