-5.52030134e-01 -5.13263218e-02 8.32239448e-01
4.28458764e-01 8.93866178e-01 1.32005369e-01
6.57759283e-01 7.53029504e-01 -1.73035666e-02
4.89012791e-01 -7.45019986e-01 4.53661247e-01
-9.04839759e-01 -3.61739850e-01 -2.24523647e-01
-9.12579542e-01 -1.12297564e-01 3.93173089e-01
3.81979945e-01 -6.59837031e-01 -6.47078786e-01
3.89462219e-01 -4.04917057e-01 -8.27264869e-01
3.22510833e-01 6.25434275e-01 7.10502458e-01
7.35204074e-02 -8.30671567e-01 -5.51890724e-01
2.26939187e-01 6.92852728e-01 -6.84440287e-01
6.74559064e-01 1.70276421e-01 -7.18318210e-01
-9.81741143e-01 9.94742207e-02 1.62135961e-01
2.70181986e-01 -1.10496993e-01 -9.56451161e-01
-4.63591485e-01 -8.54696273e-01 -2.33621179e-01
-8.09004465e-01 5.78393037e-01 -1.04756887e-01
-3.22737233e-01 9.40017162e-01 -1.10495203e-01
-9.53017235e-01 2.91554877e-01 -8.21856443e-02
2.09106426e-01 4.40496541e-01 -8.73065535e-01
-3.97822660e-01 2.13765079e-01 8.92208137e-01
-3.89462219e-01 4.04917057e-01 -8.27264869e-01
7.30567988e-01 4.31680913e-01 -5.29080067e-01
8.73506279e-01 1.54547694e-01 -4.61633005e-01
8.76851294e-01 -4.41490029e-01 1.90307717e-01
-3.97396052e-01 -8.02224369e-01 4.45543839e-01
-8.70079861e-01 2.41885347e-01 4.29475843e-01
-3.81979945e-01 6.59837031e-01 -6.47078786e-01
-7.30567988e-01 -4.31680913e-01 -5.29080067e-01
8.35629787e-02 -6.28583856e-01 -7.73243165e-01
-2.09106426e-01 -4.40496541e-01 -8.73065535e-01
3.56051831e-01 -8.45043161e-01 -3.98913462e-01
-1.51360469e-01 -9.52185041e-01 2.65389891e-01
-4.26162752e-01 8.86871429e-01 1.78446418e-01
1.51360469e-01 9.52185040e-01 2.65389891e-01
7.74036657e-01 -2.68297759e-02 6.32568555e-01
-9.25211253e-01 1.37850485e-01 -3.53530567e-01
-6.46804610e-01 2.93621595e-01 7.03864486e-01
-8.19579955e-01 4.25889324e-01 -3.83287975e-01
9.04839759e-01 3.61739850e-01 -2.24523647e-01
4.57055045e-01 -5.31281808e-01 7.13326937e-01
2.14891328e-02 6.28551935e-01 7.77467186e-01
5.96879327e-01 5.60654968e-01 5.73931222e-01
6.61825661e-01 6.90663075e-01 2.91494879e-01
7.73868394e-01 -1.37712426e-01 -6.18196842e-01
7.27135660e-01 6.23160992e-01 -2.88003701e-01
-6.89684771e-01 6.98753167e-01 1.89941030e-01
-4.92967107e-01 -4.63455398e-01 -7.36340746e-01
8.71340393e-02 -9.93138380e-01 7.79953217e-02
-7.20610770e-01 -2.82258149e-01 6.33281936e-01
7.20610770e-01 2.82258149e-01 6.33281936e-01
9.89394611e-01 6.08916106e-02 -1.31876611e-01
8.09004465e-01 -5.78393037e-01 -1.04756887e-01
-4.55929967e-01 -3.53123806e-01 8.16961265e-01
-6.61825661e-01 -6.90663075e-01 2.91494879e-01
-2.63339023e-01 -8.93382108e-02 9.60554267e-01
-8.73506279e-01 -1.54547694e-01 -4.61633005e-01
6.36405444e-01 -4.28647570e-01 -6.41290786e-01
-7.73868394e-01 1.37712426e-01 -6.18196842e-01
6.82306398e-02 -1.55084731e-01 9.85538629e-01
-1.51729865e-01 -3.79380195e-01 9.12711515e-01
-8.35629788e-02 6.28583856e-01 -7.73243165e-01
8.19579955e-01 -4.25889324e-01 -3.83287975e-01
2.63339024e-01 8.93382107e-02 9.60554267e-01
-1.95515592e-01 4.39719225e-01 8.76592553e-01
-3.22510833e-01 -6.25434275e-01 7.10502458e-01
9.25211253e-01 -1.37850485e-01 -3.53530567e-01
-6.36405445e-01 4.28647570e-01 -6.41290786e-01
-7.27135660e-01 -6.23160992e-01 -2.88003701e-01
4.55929967e-01 3.53123806e-01 8.16961265e-01
9.22837441e-02 1.36427863e-01 -9.86345818e-01
-7.35204074e-02 8.30671567e-01 -5.51890724e-01
9.53017235e-01 -2.91554877e-01 -8.21856443e-02
-2.22631915e-01 -8.77193830e-01 -4.25404514e-01
1.51729865e-01 3.79380195e-01 9.12711515e-01
-5.96879327e-01 -5.60654968e-01 5.73931222e-01
-9.60433957e-02 3.70279581e-01 -9.23945444e-01
-8.29791435e-01 -4.25843502e-01 3.60695098e-01
9.63837966e-01 2.42395287e-01 1.10725443e-01
-8.94481391e-02 -8.32150940e-01 5.47284205e-01
-9.89394611e-01 -6.08916106e-02 -1.31876611e-01
-2.70181986e-01 1.10496993e-01 -9.56451161e-01
9.60433956e-02 -3.70279581e-01 -9.23945444e-01
5.94296522e-01 -7.96043701e-01 -1.14572575e-01
5.52641535e-01 -1.21359675e-01 -8.24539235e-01
-5.02622517e-01 -6.94834291e-01 -5.14372942e-01
-4.28458764e-01 -8.93866177e-01 1.32005369e-01
6.89684771e-01 -6.98753167e-01 1.89941030e-01
-4.89012791e-01 7.45019986e-01 4.53661247e-01
-6.21451894e-01 6.68913626e-01 -4.07866360e-01
4.92967107e-01 4.63455398e-01 -7.36340746e-01
-6.57759283e-01 -7.53029504e-01 -1.73035667e-02
8.94481391e-02 8.32150940e-01 5.47284206e-01
5.52030134e-01 5.13263218e-02 8.32239448e-01
-2.31514464e-01 7.35066866e-01 6.37238796e-01
3.97822660e-01 -2.13765079e-01 8.92208137e-01
8.29791435e-01 4.25843502e-01 3.60695098e-01
-7.09970993e-01 5.19941698e-01 4.74972089e-01
-2.14891327e-02 -6.28551935e-01 7.77467186e-01
2.31514464e-01 -7.35066866e-01 6.37238796e-01
9.81741143e-01 -9.94742206e-02 1.62135961e-01
-3.56051831e-01 8.45043161e-01 -3.98913462e-01
-4.57055045e-01 5.31281808e-01 7.13326937e-01
7.09970993e-01 -5.19941698e-01 4.74972089e-01
-1.79368429e-01 9.09223700e-01 3.75681504e-01
-6.74559064e-01 -1.70276421e-01 -7.18318210e-01
6.21451893e-01 -6.68913626e-01 -4.07866360e-01
-5.52641536e-01 1.21359675e-01 -8.24539235e-01
-5.94296522e-01 7.96043701e-01 -1.14572575e-01
-8.76851294e-01 4.41490029e-01 1.90307717e-01
-8.50884200e-01 -5.23436580e-01 4.48320235e-02
-2.26939187e-01 -6.92852728e-01 -6.84440287e-01
1.95515592e-01 -4.39719225e-01 8.76592553e-01
-4.64491365e-02 9.63186632e-01 -2.64793974e-01
2.06983574e-01 9.74997699e-01 -8.08569994e-02
4.10576010e-01 1.83095541e-01 -8.93257876e-01
-9.22837442e-02 -1.36427863e-01 -9.86345818e-01
5.02622517e-01 6.94834291e-01 -5.14372942e-01
8.70079861e-01 -2.41885347e-01 4.29475843e-01
-7.74036657e-01 2.68297758e-02 6.32568555e-01
3.97396053e-01 8.02224369e-01 4.45543839e-01
-9.63837966e-01 -2.42395287e-01 1.10725443e-01
3.22737233e-01 -9.40017162e-01 -1.10495203e-01
-6.82306397e-02 1.55084731e-01 9.85538629e-01
9.12579542e-01 1.12297564e-01 3.93173088e-01
8.50884200e-01 5.23436580e-01 4.48320235e-02
1.79368429e-01 -9.09223700e-01 3.75681504e-01
4.63591485e-01 8.54696273e-01 -2.33621179e-01
6.46804610e-01 -2.93621595e-01 7.03864486e-01
2.22631915e-01 8.77193830e-01 -4.25404514e-01
-2.06983574e-01 -9.74997699e-01 -8.08569994e-02
-8.71340393e-02 9.93138380e-01 7.79953217e-02
4.64491365e-02 -9.63186632e-01 -2.64793974e-01
-4.10576010e-01 -1.83095541e-01 -8.93257876e-01
4.26162752e-01 -8.86871429e-01 1.78446418e-01
