7.37554131e-01 -6.58360643e-01 1.50247682e-01
6.72867439e-01 -3.70628710e-01 -6.40224326e-01
-2.29708937e-01 8.65196833e-01 4.45719491e-01
-3.20321560e-02 -5.45695767e-01 8.37368259e-01
3.45477927e-01 8.29721368e-01 4.38412035e-01
-4.64813929e-01 6.62632302e-01 5.87250635e-01
-5.79399633e-01 4.05269324e-01 7.07141475e-01
8.55416837e-01 4.01511888e-02 5.16378893e-01
-5.74015033e-01 -6.40476043e-01 5.10190609e-01
5.74015032e-01 6.40476042e-01 5.10190610e-01
-8.69957567e-01 3.19304794e-01 -3.75792877e-01
9.42312351e-01 2.50183034e-01 -2.22389456e-01
-8.69710114e-02 -7.83882978e-01 -6.14790047e-01
9.78097324e-01 -2.02024434e-01 -5.01200647e-02
4.88921606e-02 9.48876790e-01 3.11834457e-01
1.50384346e-01 2.58976807e-01 -9.54107256e-01
3.20321554e-02 5.45695767e-01 8.37368259e-01
-3.13852496e-01 -9.37508103e-01 1.50247682e-01
-8.34387136e-01 -2.21528992e-01 -5.04703583e-01
-2.53353996e-01 9.54255754e-01 1.58766686e-01
-5.13127322e-01 7.99661152e-01 3.11834457e-01
-6.72867438e-01 3.70628710e-01 -6.40224326e-01
-3.02067965e-01 -6.39298134e-01 7.07141475e-01
-2.21282941e-01 8.33460389e-01 -5.06340146e-01
-2.52889605e-01 -9.55998668e-01 -1.48708400e-01
2.53353996e-01 -9.54255754e-01 1.58766685e-01
7.49074810e-01 6.60586993e-01 -5.01200646e-02
-4.64348977e-01 6.37508045e-01 -6.14790047e-01
9.09650839e-01 4.14315464e-01 2.96292068e-02
-7.08693507e-02 2.66928829e-01 9.61104263e-01
4.41568767e-01 1.17236088e-01 8.89532447e-01
-1.84630557e-01 6.95409483e-01 6.94487941e-01
8.35134465e-04 9.99996275e-01 2.59600405e-03
-9.09650839e-01 -4.14315464e-01 2.96292060e-02
-5.97001741e-01 -7.08781096e-01 -3.75792877e-01
-3.45477927e-01 -8.29721369e-01 4.38412035e-01
9.58598810e-01 -1.01490437e-01 2.66057496e-01
-9.23696117e-01 -2.45240441e-01 2.94348497e-01
-8.94040139e-01 3.94863405e-01 2.11598659e-01
-4.07431895e-01 4.09650736e-01 -8.16204559e-01
4.77735349e-01 -8.09017321e-01 -3.42435014e-01
-7.49122740e-02 -8.05929096e-01 5.87250634e-01
7.62677952e-01 3.89451439e-01 5.16378893e-01
-1.35202106e-02 -9.39445205e-01 -3.42435015e-01
-6.50573676e-01 -1.72726693e-01 -7.39542649e-01
-5.24782846e-01 -8.44898195e-01 -1.03684899e-01
-7.62677953e-01 -3.89451440e-01 5.16378892e-01
-9.78097324e-01 2.02024434e-01 -5.01200652e-02
3.25969520e-01 8.48035890e-01 -4.17829191e-01
8.69957567e-01 -3.19304794e-01 -3.75792877e-01
-6.54936909e-01 1.20691287e-01 7.45980748e-01
-5.08817326e-01 -4.29666930e-01 7.45980748e-01
-4.41568768e-01 -1.17236088e-01 8.89532447e-01
1.71273325e-01 -6.45099579e-01 -7.44658282e-01
5.80433173e-01 7.86334668e-01 2.11598659e-01
1.06247990e-01 -4.00182186e-01 -9.10258448e-01
2.59040299e-01 -1.50274953e-01 -9.54107256e-01
5.08817325e-01 4.29666930e-01 7.45980748e-01
6.54936909e-01 -1.20691287e-01 7.45980748e-01
-7.11548848e-01 5.49081764e-01 4.38412035e-01
4.64813929e-01 -6.62632302e-01 5.87250635e-01
-1.06247990e-01 4.00182186e-01 -9.10258448e-01
1.50574412e-01 5.57800880e-01 -8.16204559e-01
5.67878243e-01 -1.34979807e-01 -8.11972344e-01
7.49122736e-02 8.05929096e-01 5.87250635e-01
8.16116571e-01 -2.71397423e-01 5.10190610e-01
-4.26136384e-01 -3.98889745e-01 -8.11972345e-01
3.02067965e-01 6.39298134e-01 7.07141475e-01
-1.50574411e-01 -5.57800879e-01 -8.16204560e-01
-4.00409295e-01 -6.55582662e-01 -6.40224326e-01
5.13127322e-01 -7.99661152e-01 3.11834457e-01
3.13852496e-01 9.37508103e-01 1.50247682e-01
-7.49074810e-01 -6.60586993e-01 -5.01200652e-02
-4.77735349e-01 8.09017321e-01 -3.42435014e-01
4.07431896e-01 -4.09650735e-01 -8.16204559e-01
-3.84494924e-01 1.81123684e-01 9.05181215e-01
2.21282941e-01 -8.33460389e-01 -5.06340146e-01
4.26136384e-01 3.98889746e-01 -8.11972344e-01
7.11548848e-01 -5.49081765e-01 4.38412035e-01
-5.67878242e-01 1.34979807e-01 -8.11972345e-01
3.84494924e-01 -1.81123685e-01 9.05181215e-01
1.84630557e-01 -6.95409484e-01 6.94487941e-01
8.94040138e-01 -3.94863405e-01 2.11598659e-01
-2.59040298e-01 1.50274953e-01 -9.54107256e-01
-2.44015082e-01 -3.47992494e-01 9.05181215e-01
-8.16116571e-01 2.71397423e-01 5.10190609e-01
-7.82012344e-01 -5.63621045e-01 2.66057496e-01
9.95367318e-01 9.14650459e-02 2.96292067e-02
2.19205890e-10 2.09449599e-10 -1.00000267e+00
-1.50384345e-01 -2.58976806e-01 -9.54107256e-01
8.00372813e-01 -8.29444330e-02 -5.93739632e-01
9.23696117e-01 2.45240441e-01 2.94348498e-01
-8.06106344e-01 -5.02519869e-01 -3.12518820e-01
-6.77337173e-01 -1.79832376e-01 7.13351851e-01
5.79399632e-01 -4.05269325e-01 7.07141475e-01
2.29708937e-01 -8.65196834e-01 4.45719490e-01
2.98496677e-01 -4.57940676e-01 8.37368259e-01
3.98772267e-01 1.05873658e-01 -9.10920584e-01
-3.98772267e-01 -1.05873658e-01 -9.10920584e-01
4.00409295e-01 6.55582663e-01 -6.40224326e-01
6.77337172e-01 1.79832375e-01 7.13351851e-01
-8.74768186e-01 4.73318726e-01 -1.03684899e-01
-2.98496678e-01 4.57940676e-01 8.37368259e-01
7.82012344e-01 5.63621044e-01 2.66057496e-01
8.06106344e-01 5.02519869e-01 -3.12518819e-01
8.69710118e-02 7.83882978e-01 -6.14790047e-01
7.03694230e-01 -5.74661143e-01 -4.17829191e-01
-6.93791752e-01 7.04655668e-01 -1.48708400e-01
8.34387137e-01 2.21528992e-01 -5.04703583e-01
-8.55416837e-01 -4.01511891e-02 5.16378892e-01
-9.42312351e-01 -2.50183033e-01 -2.22389456e-01
1.35202108e-02 9.39445205e-01 -3.42435014e-01
-8.35134495e-04 -9.99996275e-01 2.59600371e-03
6.50573677e-01 1.72726693e-01 -7.39542648e-01
2.52347148e-01 -9.50463469e-01 -1.81496777e-01
-4.88921608e-02 -9.48876791e-01 3.11834456e-01
-8.00372813e-01 8.29444333e-02 -5.93739632e-01
-6.53823546e-01 -4.69032184e-01 -5.93739632e-01
-3.25969520e-01 -8.48035889e-01 -4.17829191e-01
-1.71273325e-01 6.45099579e-01 -7.44658282e-01
-9.58598811e-01 1.01490437e-01 2.66057496e-01
1.52202626e-01 4.04096524e-02 9.87520202e-01
5.24782846e-01 8.44898195e-01 -1.03684899e-01
5.97001741e-01 7.08781096e-01 -3.75792877e-01
-5.80433173e-01 -7.86334668e-01 2.11598659e-01
-1.52202627e-01 -4.04096529e-02 9.87520202e-01
-9.49211529e-01 3.64846422e-02 -3.12518820e-01
2.44015081e-01 3.47992494e-01 9.05181215e-01
-4.96756171e-01 8.67886256e-01 2.59600389e-03
6.93791752e-01 -7.04655668e-01 -1.48708400e-01
8.74768186e-01 -4.73318726e-01 -1.03684899e-01
2.52889605e-01 9.55998668e-01 -1.48708400e-01
9.49211529e-01 -3.64846421e-02 -3.12518819e-01
-9.95367318e-01 -9.14650460e-02 2.96292061e-02
4.64348977e-01 -6.37508045e-01 -6.14790047e-01
-7.03694230e-01 5.74661143e-01 -4.17829191e-01
-2.52347148e-01 9.50463469e-01 -1.81496777e-01
4.96756171e-01 -8.67886256e-01 2.59600388e-03
-7.37554131e-01 6.58360643e-01 1.50247682e-01
6.53823546e-01 4.69032184e-01 -5.93739632e-01
7.08693500e-02 -2.66928829e-01 9.61104263e-01
