1.08647521e-01 -6.87720373e-01 7.17795822e-01
-4.51127657e-01 2.16404955e-01 8.65821011e-01
2.86895632e-01 -4.67194733e-01 8.36309451e-01
-6.33618234e-01 -2.35231936e-01 7.37012998e-01
-2.65597305e-02 -9.67703316e-01 2.50684921e-01
-9.66535751e-01 2.55823709e-01 1.90453487e-02
-6.25209884e-01 -7.05983289e-01 -3.32720265e-01
-6.16282830e-02 9.95306451e-01 -7.46163644e-02
6.16282829e-02 -9.95306451e-01 -7.46163645e-02
8.18350720e-01 -2.48428076e-01 5.18248564e-01
-1.16826832e-01 -9.86560126e-02 -9.88243968e-01
-8.50168891e-01 5.17578530e-01 -9.65715824e-02
7.63866038e-01 4.05412885e-01 5.02140596e-01
-6.00282449e-01 4.06312795e-01 6.88887187e-01
1.39726369e-01 -9.12382362e-01 -3.84756999e-01
2.96438524e-01 3.61897925e-01 -8.83833096e-01
-9.27032704e-01 -2.56102124e-01 2.73897692e-01
6.81337057e-01 -7.27615886e-02 7.28340527e-01
-2.86895632e-01 4.67194733e-01 8.36309451e-01
4.60002431e-01 8.74751050e-01 -1.52346789e-01
9.66535751e-01 -2.55823709e-01 1.90453488e-02
-3.52999094e-01 9.20255245e-01 -1.68888224e-01
-5.00079099e-01 7.87146377e-01 3.60996785e-01
3.52999094e-01 -9.20255245e-01 -1.68888224e-01
4.46697471e-01 -7.82493007e-01 -4.33784998e-01
9.27032704e-01 2.56102124e-01 2.73897692e-01
-6.46579158e-01 7.40578643e-01 -1.82975639e-01
-3.71785714e-01 -7.44232864e-01 5.54877038e-01
-2.39584541e-01 -9.70605455e-01 2.28936851e-02
-5.06175702e-01 5.56702409e-01 -6.58690891e-01
-9.70434605e-01 9.13422274e-02 -2.23416664e-01
4.20811974e-01 5.73397525e-02 -9.05337755e-01
4.39097510e-02 6.21061693e-01 -7.82534581e-01
1.68729441e-01 9.43450891e-01 -2.85364685e-01
-8.17892950e-01 -4.71645928e-01 -3.29550896e-01
7.41379492e-01 -6.54062960e-01 1.50189641e-01
-7.41379493e-01 6.54062960e-01 1.50189641e-01
-4.46697471e-01 7.82493007e-01 -4.33784998e-01
8.10632053e-01 5.44787870e-01 2.14662964e-01
-3.37762355e-01 -8.92827872e-01 2.97947434e-01
2.06961754e-04 -3.70116439e-01 -9.28989223e-01
2.16558954e-01 -8.58822132e-01 4.64244729e-01
-4.23693064e-01 -7.87183018e-02 9.02374991e-01
7.20394277e-01 -3.13471047e-01 -6.18686337e-01
-8.10632053e-01 -5.44787870e-01 2.14662964e-01
-7.20394276e-01 3.13471047e-01 -6.18686337e-01
3.78451244e-01 7.94883995e-01 -4.74276043e-01
2.67431988e-01 -4.91127524e-01 -8.29023710e-01
-9.22072951e-01 -3.85703288e-01 -3.18542563e-02
-6.93313999e-01 5.61807831e-01 4.51313819e-01
6.93313999e-01 -5.61807831e-01 4.51313819e-01
9.02809314e-02 8.18364416e-01 -5.67568000e-01
6.11526136e-01 5.34950358e-01 -5.82982347e-01
2.34439037e-01 -1.84947889e-01 -9.54379385e-01
-5.65247612e-01 -3.01867864e-01 -7.67708849e-01
6.17976199e-01 6.77014760e-01 3.99691550e-01
-8.18350720e-01 2.48428076e-01 5.18248564e-01
5.65247613e-01 3.01867865e-01 -7.67708849e-01
-6.17976199e-01 -6.77014760e-01 3.99691550e-01
-6.11526136e-01 -5.34950358e-01 -5.82982347e-01
5.26121919e-01 -8.47704007e-01 6.77725398e-02
-2.67431988e-01 4.91127524e-01 -8.29023710e-01
-8.56379895e-02 -8.45383415e-01 5.27246556e-01
3.30640492e-01 3.64799206e-01 8.70397415e-01
1.06572815e-02 4.21196999e-01 9.06902687e-01
-2.96438524e-01 -3.61897925e-01 -8.83833096e-01
-3.78451244e-01 -7.94883995e-01 -4.74276043e-01
5.71433854e-01 8.10996879e-01 1.25484820e-01
-1.68729441e-01 -9.43450891e-01 -2.85364685e-01
1.92182879e-01 6.19796846e-01 7.60862481e-01
2.21667465e-01 -7.36312124e-01 -6.39306612e-01
8.78817895e-01 -4.01875330e-01 2.57241781e-01
-1.27228183e-01 -1.32114158e-01 9.83031648e-01
8.44658615e-01 9.32130034e-02 5.27123396e-01
-2.06961707e-04 3.70116439e-01 -9.28989223e-01
-9.37296708e-01 -1.97939507e-01 -2.86874635e-01
-5.71433854e-01 -8.10996879e-01 1.25484820e-01
-8.74015148e-01 3.44022621e-01 -3.43145182e-01
1.16826833e-01 9.86560126e-02 -9.88243968e-01
9.70434605e-01 -9.13422274e-02 -2.23416664e-01
-4.20811974e-01 -5.73397524e-02 -9.05337755e-01
4.17496610e-01 -6.57244243e-01 6.27472488e-01
-9.02809313e-02 -8.18364416e-01 -5.67568000e-01
2.39584540e-01 9.70605455e-01 2.28936852e-02
6.00282449e-01 -4.06312795e-01 6.88887187e-01
8.59859170e-01 -4.94886887e-02 -5.08130903e-01
-9.95985448e-01 -8.47632629e-02 2.87741863e-02
-6.71193406e-01 6.71497835e-03 -7.41255735e-01
-5.22929338e-01 -5.13778924e-01 6.80125617e-01
-8.59859170e-01 4.94886888e-02 -5.08130903e-01
-1.92182879e-01 -6.19796846e-01 7.60862481e-01
-5.26121919e-01 8.47704007e-01 6.77725399e-02
-3.45638270e-01 -6.07913418e-01 -7.14829351e-01
-6.81337057e-01 7.27615885e-02 7.28340526e-01
-1.73282451e-01 1.69455611e-01 9.70180638e-01
-1.08647521e-01 6.87720373e-01 7.17795822e-01
-8.78817895e-01 4.01875330e-01 2.57241781e-01
-5.00964780e-01 2.65607076e-01 -8.23707201e-01
-7.51056185e-01 -6.57280275e-01 -6.24318106e-02
6.71193406e-01 -6.71497829e-03 -7.41255735e-01
-7.87268790e-01 -2.52993173e-01 -5.62322562e-01
-4.17496610e-01 6.57244243e-01 6.27472488e-01
4.51127657e-01 -2.16404955e-01 8.65821011e-01
5.22929338e-01 5.13778924e-01 6.80125617e-01
5.00964780e-01 -2.65607076e-01 -8.23707201e-01
8.17892951e-01 4.71645928e-01 -3.29550896e-01
6.99652367e-01 -5.75292841e-01 -4.23707441e-01
6.33618234e-01 2.35231936e-01 7.37012998e-01
-4.39097509e-02 -6.21061693e-01 -7.82534581e-01
-8.44658615e-01 -9.32130035e-02 5.27123396e-01
8.74015148e-01 -3.44022621e-01 -3.43145182e-01
2.65597305e-02 9.67703316e-01 2.50684921e-01
-1.06572816e-02 -4.21196999e-01 9.06902687e-01
-2.16558954e-01 8.58822132e-01 4.64244729e-01
-9.53702211e-01 7.89852997e-02 2.90191605e-01
1.73282451e-01 -1.69455611e-01 9.70180638e-01
-7.63866038e-01 -4.05412885e-01 5.02140596e-01
-1.39726369e-01 9.12382362e-01 -3.84756999e-01
7.51056185e-01 6.57280275e-01 -6.24318106e-02
5.00079099e-01 -7.87146377e-01 3.60996785e-01
-2.61582694e-01 9.51036655e-01 1.64628366e-01
3.45638270e-01 6.07913418e-01 -7.14829351e-01
8.56379895e-02 8.45383415e-01 5.27246556e-01
9.53702211e-01 -7.89852998e-02 2.90191605e-01
-3.30640492e-01 -3.64799206e-01 8.70397415e-01
-2.34439037e-01 1.84947889e-01 -9.54379385e-01
8.50168891e-01 -5.17578530e-01 -9.65715823e-02
6.46579158e-01 -7.40578643e-01 -1.82975639e-01
6.25209884e-01 7.05983289e-01 -3.32720265e-01
-4.60002431e-01 -8.74751050e-01 -1.52346789e-01
-6.99652367e-01 5.75292841e-01 -4.23707441e-01
3.71785714e-01 7.44232864e-01 5.54877038e-01
2.61582693e-01 -9.51036656e-01 1.64628365e-01
1.27228183e-01 1.32114158e-01 9.83031648e-01
9.22072951e-01 3.85703288e-01 -3.18542562e-02
9.95985448e-01 8.47632629e-02 2.87741864e-02
5.06175702e-01 -5.56702409e-01 -6.58690891e-01
4.23693064e-01 7.87183016e-02 9.02374991e-01
-2.21667465e-01 7.36312124e-01 -6.39306612e-01
7.87268790e-01 2.52993173e-01 -5.62322562e-01
3.37762355e-01 8.92827872e-01 2.97947434e-01
9.37296708e-01 1.97939507e-01 -2.86874635e-01
