-6.24199506e-01 2.16836351e-01 7.50569722e-01
3.55319143e-01 -2.52883750e-01 -8.99889212e-01
2.24542277e-01 7.76947963e-01 5.88159001e-01
-6.92804553e-01 -8.33363145e-02 -7.16295248e-01
-2.75479982e-01 -2.88523898e-01 -9.16988148e-01
-2.68646158e-01 5.49343301e-01 7.91232584e-01
5.32764628e-01 3.38572644e-01 -7.75585295e-01
-5.44898378e-01 -6.02340753e-01 -5.83329221e-01
-4.15812895e-01 -3.09274881e-01 8.55246356e-01
-4.99690932e-01 4.96478105e-01 -7.09803084e-01
7.30397920e-01 -4.26651752e-01 -5.33374755e-01
-5.63785214e-01 6.87037803e-01 -4.58395627e-01
-9.37792145e-02 9.79918339e-01 1.75968814e-01
-7.11175901e-01 -6.73993509e-01 1.99902569e-01
-7.95661875e-01 5.39531385e-01 2.75367584e-01
8.86536361e-01 3.89725058e-01 2.49333058e-01
9.76450731e-01 2.15458207e-01 1.10317774e-02
-4.47940739e-01 -5.87209805e-01 6.74189798e-01
7.95661875e-01 -5.39531385e-01 2.75367584e-01
6.41608134e-01 3.59448315e-01 6.77594307e-01
-4.55605181e-01 -3.38157533e-02 -8.89540816e-01
-2.30778211e-01 5.18818126e-01 -8.23147274e-01
5.77330257e-01 -7.98406432e-01 -1.70989519e-01
7.11175901e-01 6.73993509e-01 1.99902569e-01
3.05864585e-01 -7.33880033e-01 -6.06521741e-01
-4.19933127e-01 -8.76003893e-03 9.07511395e-01
-7.30397920e-01 4.26651752e-01 -5.33374755e-01
-2.07302933e-01 -9.23678767e-01 3.22245468e-01
1.75960806e-01 9.37944482e-01 -2.98828993e-01
8.56706023e-01 5.15184726e-01 -2.52894855e-02
4.04274364e-01 9.07236469e-01 -1.16122985e-01
1.63162510e-01 2.01978126e-02 -9.86393815e-01
6.58288933e-01 7.47918683e-01 -8.52851654e-02
-9.71939516e-01 -1.23731664e-02 -2.34906640e-01
-8.56706023e-01 -5.15184726e-01 -2.52894855e-02
-7.40936850e-01 -3.79949524e-01 -5.53762103e-01
-4.04274364e-01 -9.07236469e-01 -1.16122985e-01
-3.20937478e-01 7.50779612e-01 5.77345234e-01
2.51785060e-01 7.93888695e-01 -5.53485814e-01
4.91754233e-01 7.89435600e-01 -3.67382933e-01
-5.72270067e-02 2.48299038e-01 -9.66992926e-01
4.15812895e-01 3.09274881e-01 8.55246356e-01
9.22530356e-01 -2.51312502e-01 2.92880457e-01
-5.77330257e-01 7.98406432e-01 -1.70989519e-01
8.37138497e-01 2.23181206e-01 4.99387536e-01
4.64269825e-01 8.70247418e-01 1.64689125e-01
-2.64227133e-02 6.95805025e-01 7.17743152e-01
-9.19646390e-01 2.82916866e-01 -2.72413865e-01
-8.68559802e-01 -1.29651561e-01 -4.78325893e-01
4.55605181e-01 3.38157533e-02 -8.89540816e-01
-7.84539580e-01 5.55470630e-01 -2.75591701e-01
-9.57886579e-01 -6.44400912e-02 2.79821383e-01
9.47418123e-02 -9.84167701e-01 -1.49794321e-01
9.94045957e-01 -1.05102858e-01 2.87392587e-02
9.19646390e-01 -2.82916866e-01 -2.72413865e-01
2.68646158e-01 -5.49343301e-01 7.91232584e-01
7.59417236e-01 -3.84284209e-01 5.24985394e-01
-1.63162510e-01 -2.01978126e-02 -9.86393815e-01
8.68559802e-01 1.29651561e-01 -4.78325893e-01
-3.14144857e-01 -5.74901396e-01 -7.55515369e-01
-9.94045957e-01 1.05102858e-01 2.87392586e-02
-9.47418124e-02 9.84167700e-01 -1.49794321e-01
-2.51785059e-01 -7.93888695e-01 -5.53485814e-01
-5.79303002e-01 7.98911868e-01 1.61701623e-01
3.20937478e-01 -7.50779612e-01 5.77345234e-01
6.90885602e-02 -8.87536302e-01 -4.55529732e-01
-4.89534508e-01 -7.58473389e-01 4.30200998e-01
-3.42103492e-01 8.85398405e-01 3.14696679e-01
5.83278900e-02 -8.81641915e-01 4.68299158e-01
-5.86390010e-01 6.79923108e-01 4.40284125e-01
4.89534508e-01 7.58473389e-01 4.30200998e-01
7.09590903e-01 5.36640881e-01 4.56613686e-01
-9.76450731e-01 -2.15458207e-01 1.10317773e-02
-5.34039406e-01 5.03602165e-01 6.79105958e-01
5.34039406e-01 -5.03602165e-01 6.79105958e-01
-6.58288933e-01 -7.47918683e-01 -8.52851655e-02
-8.37378523e-01 8.46019825e-02 5.40035394e-01
2.75479982e-01 2.88523898e-01 -9.16988148e-01
5.57751038e-03 -7.21605965e-01 -6.92282910e-01
6.20442662e-01 -2.14699176e-01 -7.54292545e-01
-5.32764628e-01 -3.38572644e-01 -7.75585295e-01
-7.40084543e-01 -5.88482459e-01 -3.25521368e-01
-6.90885601e-02 8.87536302e-01 -4.55529732e-01
2.64227133e-02 -6.95805025e-01 7.17743152e-01
-1.75960806e-01 -9.37944482e-01 -2.98828993e-01
6.92804553e-01 8.33363146e-02 -7.16295248e-01
-9.22530356e-01 2.51312502e-01 2.92880457e-01
-1.60671675e-01 -9.86569283e-01 2.94207505e-02
4.19933127e-01 8.76003889e-03 9.07511395e-01
5.44738951e-02 -3.94486069e-01 9.17284477e-01
-8.33519645e-01 1.53739203e-01 -5.30670066e-01
-3.55319143e-01 2.52883750e-01 -8.99889212e-01
-9.20235244e-01 3.91284191e-01 7.98473491e-03
6.24199506e-01 -2.16836351e-01 7.50569722e-01
1.97455782e-01 5.24905591e-01 8.27939041e-01
1.60671676e-01 9.86569284e-01 2.94207505e-02
-1.97455782e-01 -5.24905591e-01 8.27939041e-01
4.47940739e-01 5.87209805e-01 6.74189798e-01
8.37378523e-01 -8.46019825e-02 5.40035394e-01
9.20235244e-01 -3.91284191e-01 7.98473493e-03
3.62956737e-01 -2.83637012e-01 8.87586621e-01
7.66171895e-01 -6.42634315e-01 1.32654142e-03
5.86390011e-01 -6.79923108e-01 4.40284125e-01
9.57886579e-01 6.44400912e-02 2.79821383e-01
8.33519646e-01 -1.53739203e-01 -5.30670066e-01
3.14144857e-01 5.74901396e-01 -7.55515369e-01
-6.20442662e-01 2.14699176e-01 -7.54292545e-01
-5.94878494e-02 -4.93807108e-01 -8.67535662e-01
-4.64269825e-01 -8.70247418e-01 1.64689125e-01
-3.62956737e-01 2.83637012e-01 8.87586621e-01
7.84539580e-01 -5.55470630e-01 -2.75591701e-01
9.71939516e-01 1.23731666e-02 -2.34906640e-01
-7.59417236e-01 3.84284209e-01 5.24985394e-01
3.42103492e-01 -8.85398405e-01 3.14696679e-01
1.66206998e-01 2.00821278e-01 9.65423943e-01
5.94878494e-02 4.93807108e-01 -8.67535662e-01
1.29578055e-01 -9.87851096e-02 9.86634843e-01
5.79303002e-01 -7.98911868e-01 1.61701623e-01
2.07302933e-01 9.23678767e-01 3.22245468e-01
9.37792145e-02 -9.79918339e-01 1.75968814e-01
4.99690932e-01 -4.96478105e-01 -7.09803084e-01
5.72270068e-02 -2.48299039e-01 -9.66992926e-01
-1.66206998e-01 -2.00821278e-01 9.65423943e-01
7.40936850e-01 3.79949524e-01 -5.53762103e-01
-2.24542277e-01 -7.76947963e-01 5.88159001e-01
9.04572880e-01 3.36283541e-01 -2.62034360e-01
-8.86536361e-01 -3.89725058e-01 2.49333058e-01
-3.53332659e-01 9.35490115e-01 -3.77982038e-03
3.38730621e-01 -8.82605643e-01 -3.25990402e-01
-3.38730621e-01 8.82605643e-01 -3.25990402e-01
-5.44738951e-02 3.94486069e-01 9.17284477e-01
-6.64912051e-01 -7.53856118e-02 7.43106270e-01
2.30778211e-01 -5.18818126e-01 -8.23147274e-01
-8.37138497e-01 -2.23181206e-01 4.99387536e-01
-9.04572880e-01 -3.36283541e-01 -2.62034360e-01
-6.41608134e-01 -3.59448315e-01 6.77594307e-01
-5.57751035e-03 7.21605965e-01 -6.92282910e-01
6.64912051e-01 7.53856117e-02 7.43106270e-01
-1.29578055e-01 9.87851096e-02 9.86634843e-01
5.63785214e-01 -6.87037803e-01 -4.58395627e-01
7.40084543e-01 5.88482459e-01 -3.25521368e-01
-5.83278899e-02 8.81641915e-01 4.68299158e-01
-7.09590903e-01 -5.36640881e-01 4.56613686e-01
-7.66171895e-01 6.42634315e-01 1.32654152e-03
3.53332659e-01 -9.35490115e-01 -3.77982036e-03
-4.91754233e-01 -7.89435600e-01 -3.67382933e-01
5.44898378e-01 6.02340753e-01 -5.83329221e-01
-3.05864585e-01 7.33880033e-01 -6.06521741e-01
