6.71493025e-01 -1.41605852e-01 7.27354728e-01
-6.70137938e-01 5.91823563e-01 4.47950906e-01
4.42184929e-01 6.86395771e-01 5.77350269e-01
1.22021669e-01 -9.22292371e-01 3.66725366e-01
-6.02893353e-01 5.50387219e-01 -5.77575548e-01
-4.23619902e-01 9.05562667e-01 -2.24150396e-02
2.31471575e-01 2.55906292e-01 9.38580247e-01
-1.60414768e-01 -3.17935422e-01 -9.34443241e-01
4.93156592e-01 7.13453204e-01 -4.97776156e-01
9.26562316e-01 -2.51744390e-01 -2.79476360e-01
6.30213227e-01 -6.02679427e-01 4.89498516e-01
3.70723754e-01 8.89915776e-01 -2.65732591e-01
-8.27602141e-01 3.63586894e-01 -4.27643855e-01
-9.42650167e-01 -3.32405235e-01 -3.02889754e-02
-2.13112248e-01 6.52332944e-01 7.27354728e-01
8.47039306e-01 5.18365222e-01 -1.17566619e-01
-3.02319816e-01 -9.51979127e-01 -4.83577313e-02
3.56777605e-01 -5.77034284e-01 -7.34670794e-01
-7.21479649e-01 3.20396871e-01 6.13850928e-01
-7.17670843e-01 6.18877576e-01 -3.19279042e-01
8.20926831e-02 7.05757110e-01 7.03681528e-01
3.73343711e-01 -7.26141267e-01 5.77350269e-01
3.95914112e-01 -2.52199308e-01 8.82976514e-01
3.71290303e-01 -7.83812739e-01 -4.97776156e-01
-4.47583379e-01 -8.35387008e-01 -3.19057464e-01
-1.38512277e-01 -5.96022852e-01 -7.90930534e-01
7.13358383e-01 1.52522602e-01 6.84000493e-01
-4.60859528e-01 -7.35792222e-01 4.96203890e-01
6.11263896e-01 -1.06030848e-01 -7.84291980e-01
9.96050226e-01 -8.59157365e-02 -2.24150396e-02
5.72798627e-01 4.59596396e-01 -6.78728875e-01
-9.56051546e-01 -1.23901699e-01 -2.65732591e-01
7.98481949e-01 -5.26426945e-01 -2.92063776e-01
-5.71735380e-01 7.86116632e-01 2.34817583e-01
3.09672687e-01 5.35774735e-01 7.85524195e-01
-4.54054267e-01 1.31008785e-01 -8.81289635e-01
-6.81459824e-01 -5.25952273e-01 5.08907373e-01
-8.55140082e-01 -4.28292180e-01 -2.92063776e-01
-2.61166744e-01 3.91074297e-01 8.82526388e-01
8.97138725e-01 4.09469146e-01 1.65762258e-01
-2.93941819e-01 9.21768410e-01 2.52865984e-01
9.21076753e-01 -3.89201399e-01 -1.18273506e-02
-8.15528640e-01 3.97454961e-02 5.77350269e-01
-8.37042308e-01 -2.44440951e-01 4.89498516e-01
8.94799124e-01 3.12082394e-01 -3.19279042e-01
-5.18461826e-01 2.72099276e-01 8.10653637e-01
-1.95132768e-01 2.97890975e-01 -9.34443241e-01
2.04539519e-02 4.68971333e-01 8.82976514e-01
4.93619555e-01 8.69639724e-01 8.15387140e-03
-1.77465271e-01 -8.76268260e-01 4.47950907e-01
-2.13806540e-01 5.82385486e-01 -7.84291980e-01
5.37738216e-01 7.79646083e-01 3.20919922e-01
5.66581328e-02 9.54719125e-01 -2.92063776e-01
3.09158187e-01 -5.36071781e-01 7.85524195e-01
-5.73930080e-02 1.73292799e-01 9.83196648e-01
8.47603209e-01 2.84444697e-01 4.47950907e-01
6.49676844e-01 -7.24423447e-01 2.30500907e-01
2.53977976e-02 -9.92740168e-01 -1.17566619e-01
1.05885563e-01 -3.28413410e-01 9.38580247e-01
-4.16368064e-01 -2.16772024e-01 8.82976514e-01
4.06324206e-01 -8.55517997e-01 3.20919922e-01
-4.42184929e-01 -6.86395772e-01 -5.77350269e-01
-6.73278200e-01 7.37806204e-01 -4.83577316e-02
-8.40601234e-01 -4.76737235e-01 2.57120934e-01
1.11622840e-01 -7.25856361e-01 -6.78728875e-01
4.44079706e-02 6.90596621e-01 -7.21875501e-01
7.28676557e-01 5.34931031e-01 -4.27643855e-01
-9.57104922e-01 1.88911075e-01 -2.19687901e-01
-3.37357138e-01 7.25071181e-02 9.38580247e-01
-8.72437104e-01 4.74374946e-01 -1.17566619e-01
9.47258061e-01 3.00749274e-02 -3.19057464e-01
-7.97596675e-01 -6.03075168e-01 -1.18273505e-02
6.47017707e-02 4.45854983e-01 -8.92763695e-01
-9.44062422e-01 7.58719145e-02 3.20919922e-01
-8.64446895e-01 7.03595349e-02 -4.97776156e-01
-6.84421468e-01 2.66259965e-01 -6.78728875e-01
-9.54912512e-01 2.83602573e-01 8.78161365e-02
-8.59739458e-01 3.55472321e-01 3.66725366e-01
5.85427069e-01 1.78056275e-01 -7.90930534e-01
-6.20278203e-01 -3.06839880e-01 -7.21875501e-01
-8.24016714e-01 -2.27028091e-01 -5.19090264e-01
3.55547536e-01 2.00444465e-02 -9.34443241e-01
-4.99674681e-01 8.05312081e-01 -3.19057464e-01
-1.14758118e-01 8.53137656e-01 5.08907373e-01
2.15396263e-01 8.27133452e-01 -5.19090264e-01
9.45245769e-01 -2.06323123e-01 2.52865984e-01
-6.18830874e-01 2.97046847e-04 7.85524195e-01
-4.46914792e-01 4.17966576e-01 -7.90930534e-01
3.53770857e-01 -2.78960869e-01 -8.92763695e-01
5.85327792e-01 -7.66014077e-01 -2.65732591e-01
-1.21379462e-01 -1.36350203e-01 9.83196648e-01
-3.94929283e-01 -8.88195679e-01 2.34817583e-01
8.32679949e-02 -7.85018139e-01 6.13850928e-01
8.33167173e-01 -4.89613406e-01 2.57120933e-01
1.83453706e-01 9.82561609e-01 -3.02889756e-02
-6.52249927e-01 -2.81784206e-01 7.03681529e-01
-3.73343711e-01 7.26141268e-01 -5.77350269e-01
8.67644521e-01 -3.12199475e-02 4.96203890e-01
-6.78115152e-01 -2.04613276e-02 -7.34670794e-01
-4.06784993e-01 7.67012170e-01 4.96203890e-01
3.14950671e-01 -9.23332714e-01 -2.19687901e-01
8.73491390e-02 1.55998714e-01 -9.83887458e-01
5.06320316e-01 -8.62306936e-01 8.15387158e-03
3.21337546e-01 5.97495612e-01 -7.34670794e-01
7.59196461e-01 -6.50156374e-01 -3.02889755e-02
9.14242794e-02 -1.53645930e-01 -9.83887458e-01
7.37717789e-01 5.66820051e-01 3.66725366e-01
-1.78773418e-01 -2.35278358e-03 -9.83887458e-01
5.70157244e-01 -4.23972904e-01 7.03681529e-01
-1.23480078e-01 9.92276566e-01 -1.18273507e-02
-9.99939871e-01 -7.33278767e-03 8.15387158e-03
3.40484070e-01 3.27718137e-01 -8.81289635e-01
-9.39586804e-02 -9.81679500e-01 1.65762258e-01
7.43406077e-03 9.66350641e-01 2.57120933e-01
4.94875798e-01 3.12951475e-01 8.10653637e-01
-4.88767639e-01 5.41525181e-01 6.84000493e-01
-4.18472627e-01 -1.66894115e-01 -8.92763695e-01
7.84797306e-01 -3.23096311e-01 -5.28868568e-01
-6.72208266e-01 -5.18106248e-01 -5.28868568e-01
7.96217942e-01 -3.27185383e-01 5.08907373e-01
1.13570197e-01 -4.58726922e-01 -8.81289635e-01
-9.52207530e-01 -2.00424928e-01 2.30500907e-01
6.08620451e-01 -6.00105362e-01 -5.19090264e-01
-3.97457355e-01 -4.76354638e-01 -7.84291979e-01
-1.75202638e-01 -7.97314569e-01 -5.77575548e-01
5.75870232e-01 -3.83756741e-01 -7.21875501e-01
4.69263648e-01 3.06398869e-02 8.82526388e-01
-2.45264121e-01 9.28298699e-01 -2.79476360e-01
3.02530686e-01 9.24848375e-01 2.30500907e-01
-2.24590744e-01 -6.94047782e-01 6.84000493e-01
1.78772471e-01 -3.69425966e-02 9.83196648e-01
9.75598016e-01 2.14172923e-01 -4.83577315e-02
-2.08096903e-01 -4.21714183e-01 8.82526388e-01
-8.03180045e-01 5.72210354e-01 1.65762258e-01
-1.12589040e-01 8.41202559e-01 -5.28868568e-01
9.66664663e-01 1.02079047e-01 2.34817583e-01
9.89255837e-02 -8.98517926e-01 -4.27643854e-01
-6.51303950e-01 -7.15445287e-01 2.52865984e-01
6.38211654e-01 4.64621269e-01 6.13850928e-01
2.35860282e-02 -5.85050750e-01 8.10653637e-01
7.78095990e-01 2.46927349e-01 -5.77575548e-01
2.06829081e-01 8.47120378e-01 4.89498516e-01
-5.72430323e-01 -8.19646931e-01 -2.24150394e-02
-1.77128281e-01 -9.30959970e-01 -3.19279042e-01
6.42154251e-01 7.34421639e-01 -2.19687901e-01
-6.81298195e-01 -6.76554309e-01 -2.79476360e-01
2.31849223e-01 -9.68779781e-01 8.78161366e-02
-4.58380778e-01 -5.10727092e-01 7.27354728e-01
8.15528640e-01 -3.97454961e-02 -5.77350269e-01
7.23063289e-01 6.85177207e-01 8.78161364e-02
