9.78781986e-01 -2.04904426e-01 5.16351285e-17
1.84474034e-01 9.46794909e-01 2.63720935e-01
8.36420099e-01 -1.65636613e-01 5.22461416e-01
4.51188675e-01 1.00444334e-01 -8.86757980e-01
-5.69617085e-01 5.29064297e-02 8.20205636e-01
8.32623610e-01 -1.83771578e-01 -5.22461416e-01
3.30626855e-01 4.66849652e-01 8.20205636e-01
3.08073641e-01 7.58372973e-01 -5.74422375e-01
-7.81919779e-01 -3.92611069e-01 -4.84208640e-01
-1.74645539e-01 9.49058656e-01 -2.62272003e-01
9.57748269e-01 -3.09742461e-02 -2.85935044e-01
-5.28538888e-01 -4.26378462e-01 7.34062702e-01
2.61626901e-01 -7.31522554e-01 6.29623790e-01
8.62468394e-01 1.47276143e-01 4.84208640e-01
9.94695241e-01 9.76417695e-02 -3.23645153e-02
-3.65283376e-01 -5.72468344e-01 -7.34062702e-01
9.20571994e-01 2.88094553e-01 -2.63720935e-01
7.80969052e-01 -5.83797299e-01 -2.21964082e-01
4.32556811e-01 -1.88583129e-01 -8.81663773e-01
-3.12581682e-01 3.40518688e-01 -8.86757980e-01
-3.15603929e-01 1.27510913e-01 9.40284599e-01
1.68160588e-01 -6.74020697e-02 9.83452580e-01
7.08699074e-01 4.90519990e-02 7.03803612e-01
-2.10788795e-01 -9.41286010e-01 -2.63720935e-01
-3.13130440e-01 6.02578855e-01 -7.34062702e-01
-6.66843432e-01 -7.45197851e-01 -4.97106696e-17
-1.42452199e-01 -1.11930306e-01 9.83452580e-01
-6.11599751e-01 -9.91829459e-02 -7.84925785e-01
7.19631839e-01 3.90088389e-01 5.74422375e-01
-5.81907873e-01 8.12610463e-01 -3.23645155e-02
8.48567931e-01 1.27767295e-01 -5.13427682e-01
7.40872244e-01 6.64421144e-01 9.82489795e-02
4.73742750e-02 -3.37076476e-01 9.40284599e-01
3.14676840e-01 9.49181900e-01 -5.67518837e-03
-1.73669858e-03 -8.83587376e-01 -4.68263103e-01
4.99082956e-02 4.59531769e-01 8.86757980e-01
3.70648579e-01 8.74201700e-01 -3.13673428e-01
-8.55934933e-02 1.59670837e-01 -9.83452580e-01
-2.96593874e-02 7.09775174e-01 -7.03803612e-01
2.19904925e-01 5.79252394e-01 -7.84925785e-01
5.51365914e-01 2.82643134e-01 7.84925785e-01
5.33081248e-01 5.65153312e-01 -6.29623790e-01
7.66077463e-01 4.40289663e-01 -4.68263103e-01
5.71756591e-01 -7.58091935e-01 -3.13673428e-01
7.27711426e-01 -6.33156654e-01 2.63720935e-01
-5.20459092e-01 3.36175321e-01 7.84925785e-01
7.86784871e-01 5.83932666e-01 -1.99980518e-01
4.12151675e-01 -9.05802481e-01 -9.82489795e-02
-2.19894649e-02 -8.18263649e-01 5.74422375e-01
2.68229654e-01 2.09565564e-01 9.40284599e-01
-5.99853638e-01 -3.80573370e-01 -7.03803612e-01
-2.82939497e-01 -9.33100845e-01 2.21964082e-01
3.52827980e-01 8.10087701e-01 4.68263103e-01
-1.00309680e-01 -7.12235748e-01 -6.94736071e-01
-3.96829814e-01 5.89225403e-01 7.03803611e-01
-4.22920334e-01 -1.86544033e-01 8.86757980e-01
-5.66659411e-01 4.42988605e-01 -6.94736071e-01
-3.11869260e-01 -6.38277401e-01 7.03803612e-01
1.15603865e-01 -5.60266419e-01 -8.20205636e-01
-8.99092959e-01 3.89409353e-01 -1.99980518e-01
-9.24767877e-02 -9.95698667e-01 5.67518843e-03
3.73012038e-01 -2.72987736e-01 8.86757980e-01
-8.10807081e-01 -1.12386887e-01 -5.74422375e-01
-5.05698618e-01 -8.13947208e-01 -2.85935044e-01
-2.57160950e-01 8.12958987e-01 -5.22461416e-01
-5.43006884e-01 1.80017326e-01 -8.20205636e-01
-1.38606993e-01 -4.40963022e-01 -8.86757980e-01
1.15098766e-01 9.68237688e-01 -2.21964082e-01
-7.09783199e-01 6.53191457e-01 -2.63720935e-01
-9.12185460e-01 -3.13638254e-01 2.63720935e-01
-1.11295166e-02 -9.49465699e-01 3.13673428e-01
4.27403020e-01 3.80249093e-01 -8.20205636e-01
7.30971049e-01 -4.80856858e-01 -4.84208640e-01
5.78372122e-01 8.09835061e-01 -9.82489795e-02
-9.42405169e-01 -1.16109765e-01 -3.13673428e-01
-9.79791999e-01 3.92833617e-03 1.99980518e-01
1.81075748e-01 -5.70927905e-03 -9.83452580e-01
-8.96706201e-01 2.12809326e-01 3.88111042e-01
-3.09068224e-02 -6.18818455e-01 7.84925785e-01
6.33524024e-01 -2.44538873e-01 7.34062702e-01
-8.16061946e-01 5.77936581e-01 5.67518832e-03
-7.64340764e-01 4.43297713e-01 -4.68263103e-01
-8.77970518e-01 -9.94858569e-02 4.68263103e-01
-6.96764806e-01 -1.78495370e-01 6.94736071e-01
6.64677217e-01 -7.47109088e-01 -5.67518824e-03
8.27826174e-01 4.65094406e-01 3.13673428e-01
-1.04985136e-01 6.70917335e-01 7.34062702e-01
-2.57083894e-02 1.79332376e-01 9.83452580e-01
-2.35283284e-01 4.09036389e-01 8.81663773e-01
3.10714084e-01 -8.67655794e-01 -3.88111042e-01
9.09231675e-01 -3.23281854e-01 -2.62272003e-01
9.49558785e-01 2.21517631e-01 2.21964082e-01
-7.52999717e-01 -5.92648780e-01 2.85935044e-01
-9.06769002e-01 1.64741607e-01 -3.88111042e-01
6.78413817e-01 -3.01105119e-02 -7.34062702e-01
-7.59160691e-01 -4.00083815e-01 5.13427682e-01
2.22896501e-01 -7.44238559e-01 -6.29623790e-01
-3.03689316e-01 -8.20557610e-01 4.84208640e-01
-6.66619288e-01 7.11583215e-01 2.21964082e-01
5.25142538e-01 -7.10601844e-01 4.68263103e-01
-8.16696657e-01 4.84371294e-01 3.13673428e-01
-2.36594262e-01 -4.08279496e-01 8.81663773e-01
3.91694826e-01 -4.80069449e-01 -7.84925785e-01
3.30975979e-02 8.57494352e-01 5.13427682e-01
1.78602112e-01 2.89769147e-01 -9.40284599e-01
-3.79596186e-01 -2.80313622e-01 -8.81663773e-01
4.71877546e-01 -7.56893225e-04 8.81663773e-01
2.38990231e-01 -5.19756081e-01 8.20205636e-01
2.04969467e-01 -9.73824756e-01 9.82489795e-02
-5.61655564e-01 -6.41542747e-01 5.22461416e-01
8.89748758e-01 -3.55792494e-01 2.85935044e-01
-9.79354058e-01 -2.02072812e-01 -5.67518836e-03
5.02733440e-01 -6.45986086e-01 -5.74422375e-01
-7.64330566e-01 1.39185735e-01 6.29623790e-01
9.62554716e-01 -6.85697759e-02 2.62272003e-01
6.32651383e-01 6.70165686e-01 3.88111042e-01
6.66969091e-01 2.69247142e-01 -6.94736071e-01
-7.55977749e-01 1.79085247e-01 -6.29623790e-01
6.29513025e-01 -3.29201804e-01 -7.03803612e-01
4.93298038e-01 8.46560593e-01 1.99980518e-01
-9.54822546e-02 -1.53961558e-01 -9.83452580e-01
-5.40660526e-01 -7.99311949e-01 2.62272003e-01
5.02703665e-01 5.92336820e-01 6.29623790e-01
5.96054917e-01 7.02914187e-01 -3.88111042e-01
-5.34933689e-01 6.70997737e-01 -5.13427682e-01
-3.40248498e-01 9.78939258e-03 -9.40284599e-01
-5.75462660e-01 -6.29187409e-01 -5.22461416e-01
7.26063094e-01 -4.57410537e-01 5.13427682e-01
-3.13634242e-01 -7.98765033e-01 -5.13427682e-01
-8.96067818e-01 -3.84440389e-01 -2.21964082e-01
-2.74764534e-01 8.07179360e-01 5.22461416e-01
-9.45841711e-01 3.09403612e-01 9.82489794e-02
1.61646387e-01 -2.99558539e-01 -9.40284599e-01
5.02963928e-01 -5.14168338e-01 6.94736071e-01
-6.97642374e-01 4.28175259e-01 5.74422375e-01
-1.30104528e-02 9.99391448e-01 3.23645153e-02
1.93800878e-01 6.92663708e-01 6.94736071e-01
8.72003609e-01 -4.88428341e-01 3.23645155e-02
-1.36749040e-01 9.48441274e-01 2.85935044e-01
-8.58993156e-01 -5.10963107e-01 3.23645153e-02
-5.29606250e-02 4.68896751e-01 -8.81663773e-01
5.09487299e-02 8.73467927e-01 -4.84208640e-01
-4.21894190e-01 8.67881725e-01 2.62272003e-01
2.64054818e-01 -8.82975012e-01 3.88111042e-01
1.12308087e-01 -9.73342019e-01 -1.99980518e-01
-9.90523797e-01 9.59674196e-02 -9.82489796e-02
-3.11938554e-01 9.50102278e-01 -8.32196253e-11
4.86493960e-01 -8.50488929e-01 1.99980518e-01
-7.34586136e-01 -6.25776802e-01 -2.62272003e-01
9.08538734e-01 4.17762086e-01 5.67518836e-03
-4.52049650e-01 8.44921454e-01 -2.85935044e-01
-4.12787368e-01 -9.10252233e-01 -3.23645153e-02
-5.58779078e-01 6.73281468e-01 4.84208640e-01
