-9.47210994e-02 2.65489232e-01 9.59451798e-01
-9.76931304e-01 1.77007615e-01 -1.19469606e-01
1.32042291e-01 9.70718899e-01 2.00675277e-01
-7.79411243e-01 1.48491777e-02 -6.26334386e-01
-6.87658030e-02 9.96384618e-01 -4.98871804e-02
-8.63551416e-01 -4.84175458e-01 1.40903230e-01
-6.15101084e-01 -6.96577345e-01 -3.69362934e-01
7.85434401e-01 -6.13120885e-01 -8.47065313e-02
6.09062495e-02 5.10680321e-01 8.57612935e-01
-5.87524390e-01 5.62575012e-02 8.07250806e-01
4.77181991e-01 6.40865532e-01 6.01324751e-01
2.56111894e-01 1.17392673e-01 -9.59490118e-01
-4.77181991e-01 -6.40865532e-01 6.01324751e-01
9.16682527e-01 3.74183334e-01 -1.40283062e-01
6.44359827e-01 4.04344088e-01 6.49083377e-01
-5.82437232e-01 3.61131385e-01 7.28254290e-01
4.44933229e-01 -7.58824842e-01 -4.75622869e-01
7.87109256e-01 4.57842348e-01 -4.13324956e-01
-8.56659241e-01 -3.04781664e-01 4.16227077e-01
5.00228585e-01 2.17900383e-01 8.38030193e-01
-4.20886364e-03 6.33263405e-01 -7.73922618e-01
-4.47822215e-01 6.07660965e-01 6.55901216e-01
3.32116069e-01 8.81883545e-01 -3.34632344e-01
-1.51327994e-01 8.26097777e-01 -5.42825780e-01
1.52559460e-01 -9.59533935e-01 2.36688228e-01
1.43542189e-01 -4.04787097e-01 -9.03071941e-01
6.98206133e-01 -6.10997034e-01 -3.73080581e-01
-7.81175921e-01 1.66271418e-01 6.01764687e-01
9.15958566e-01 -1.00281898e-01 -3.88537869e-01
2.86369637e-01 5.72538023e-01 -7.68237686e-01
6.25368102e-01 -7.75336052e-01 8.81427483e-02
9.11054161e-01 2.20044453e-02 4.11701343e-01
1.32976124e-01 8.05538800e-01 -5.77427019e-01
5.54223879e-01 -8.07578627e-01 -2.01622754e-01
-4.06059626e-01 -7.22327195e-01 -5.59782504e-01
8.63551416e-01 4.84175458e-01 1.40903230e-01
-7.79046652e-01 3.27206213e-01 -5.34808350e-01
-9.15958566e-01 1.00281898e-01 -3.88537869e-01
1.41436488e-01 3.74367961e-01 -9.16427943e-01
-4.20326598e-01 8.69130042e-01 2.60652468e-01
4.45459814e-01 3.28732351e-01 -8.32764553e-01
-1.32042291e-01 -9.70718899e-01 2.00675277e-01
2.92202711e-01 -8.09956698e-01 5.08517492e-01
3.58509329e-01 -9.33408160e-01 -1.48391570e-02
-9.16682527e-01 -3.74183334e-01 -1.40283062e-01
4.13443402e-01 9.00612323e-01 1.34024651e-01
1.04113545e-01 -7.07604935e-01 6.98898283e-01
-9.86122026e-01 7.41913536e-02 1.48524978e-01
-2.86369637e-01 -5.72538023e-01 -7.68237686e-01
-6.07461972e-11 -5.12072758e-11 1.00000228e+00
-9.85529641e-01 -1.04755360e-01 -1.33255524e-01
-2.92202711e-01 8.09956698e-01 5.08517492e-01
-5.82576499e-01 -5.08558334e-01 -6.34011164e-01
-4.13443402e-01 -9.00612323e-01 1.34024651e-01
-7.87109256e-01 -4.57842348e-01 -4.13324956e-01
-2.84067999e-01 -8.55122020e-01 4.33674624e-01
-3.47629652e-01 1.46680579e-01 -9.26085425e-01
-2.48446106e-01 5.00135864e-01 8.29543507e-01
-1.52559460e-01 9.59533935e-01 2.36688228e-01
-6.25368102e-01 7.75336052e-01 8.81427484e-02
-1.43542189e-01 4.04787097e-01 -9.03071942e-01
-2.27145910e-01 -9.70245553e-01 -8.38326899e-02
4.47822215e-01 -6.07660965e-01 6.55901216e-01
5.49099587e-01 6.20574788e-02 -8.33447488e-01
2.27145910e-01 9.70245553e-01 -8.38326899e-02
-3.01853671e-01 -5.26200178e-03 9.53342025e-01
-2.67348931e-01 9.19592311e-01 -2.87877089e-01
-4.45459814e-01 -3.28732351e-01 -8.32764553e-01
-5.49099587e-01 -6.20574788e-02 -8.33447488e-01
9.76931304e-01 -1.77007615e-01 -1.19469606e-01
7.29170706e-01 -4.58790546e-01 5.07763361e-01
7.10242930e-01 2.58617493e-01 -6.54728180e-01
5.82437232e-01 -3.61131385e-01 7.28254290e-01
2.91962404e-01 -6.39999460e-01 -7.10742856e-01
5.86913917e-01 -6.95202187e-01 4.15003452e-01
7.86991185e-01 -5.70679637e-01 2.34458301e-01
-5.54223879e-01 8.07578627e-01 -2.01622754e-01
-2.91962404e-01 6.39999460e-01 -7.10742856e-01
-5.41705257e-01 -7.63046266e-01 3.52586750e-01
-7.29170705e-01 4.58790546e-01 5.07763361e-01
3.61357893e-01 4.73286021e-01 8.03383144e-01
6.87658030e-02 -9.96384618e-01 -4.98871804e-02
-4.13590394e-01 4.03426528e-01 -8.16202367e-01
-9.65058770e-01 -2.16325871e-01 1.47869405e-01
2.48446106e-01 -5.00135864e-01 8.29543507e-01
-8.91959039e-01 -1.92679757e-01 -4.09000880e-01
-7.29103916e-01 -5.54461542e-01 4.01225255e-01
5.33440570e-01 8.36851654e-01 -1.22963035e-01
5.87524390e-01 -5.62575012e-02 8.07250806e-01
3.79931188e-01 -2.55135280e-01 8.89135722e-01
5.25861342e-02 -1.33572234e-01 -9.89640666e-01
-3.58509329e-01 9.33408160e-01 -1.48391570e-02
8.96034372e-01 -2.82579904e-01 3.42450818e-01
8.75799205e-01 -4.00604230e-01 -2.69241113e-01
-2.56111894e-01 -1.17392673e-01 -9.59490118e-01
3.47629652e-01 -1.46680579e-01 -9.26085424e-01
1.51327994e-01 -8.26097777e-01 -5.42825780e-01
-4.45901654e-04 -8.78367673e-01 4.77987667e-01
5.41705257e-01 7.63046266e-01 3.52586750e-01
7.79046652e-01 -3.27206213e-01 -5.34808350e-01
4.06059626e-01 7.22327195e-01 -5.59782504e-01
1.95400699e-01 7.10012883e-01 6.76537771e-01
7.79411243e-01 -1.48491777e-02 -6.26334386e-01
6.15101084e-01 6.96577345e-01 -3.69362934e-01
-9.11054161e-01 -2.20044453e-02 4.11701343e-01
-5.33440570e-01 -8.36851654e-01 -1.22963035e-01
-3.32116069e-01 -8.81883545e-01 -3.34632344e-01
-3.79931188e-01 2.55135280e-01 8.89135722e-01
7.81175921e-01 -1.66271418e-01 6.01764686e-01
-9.20124725e-01 3.86610989e-01 6.24717408e-02
-1.32976124e-01 -8.05538800e-01 -5.77427019e-01
-6.86050281e-01 -7.18916537e-01 1.11778949e-01
-7.49612927e-01 -1.35655408e-01 6.47827926e-01
5.80473019e-01 -5.27413328e-01 -6.20389739e-01
7.49612927e-01 1.35655408e-01 6.47827926e-01
9.20124725e-01 -3.86610988e-01 6.24717408e-02
2.84067999e-01 8.55122020e-01 4.33674624e-01
2.67348931e-01 -9.19592311e-01 -2.87877089e-01
-3.61357893e-01 -4.73286021e-01 8.03383144e-01
-6.09062496e-02 -5.10680321e-01 8.57612935e-01
-3.38083374e-02 -9.44850724e-01 -3.25749324e-01
-5.80473019e-01 5.27413328e-01 -6.20389739e-01
9.85529641e-01 1.04755360e-01 -1.33255524e-01
9.65058770e-01 2.16325871e-01 1.47869405e-01
5.82576499e-01 5.08558334e-01 -6.34011164e-01
4.20326598e-01 -8.69130041e-01 2.60652468e-01
-1.41436488e-01 -3.74367961e-01 -9.16427943e-01
-8.96034372e-01 2.82579904e-01 3.42450818e-01
-7.86991185e-01 5.70679637e-01 2.34458301e-01
-2.01281448e-01 -2.63652392e-01 9.43386185e-01
-6.98206133e-01 6.10997034e-01 -3.73080582e-01
-1.04113545e-01 7.07604935e-01 6.98898283e-01
8.91959039e-01 1.92679757e-01 -4.09000880e-01
4.13590394e-01 -4.03426528e-01 -8.16202367e-01
6.18106296e-01 -2.16181243e-01 -7.55782266e-01
-7.73289885e-01 -6.18256493e-01 -1.40645022e-01
7.29103916e-01 5.54461542e-01 4.01225255e-01
-7.10242930e-01 -2.58617493e-01 -6.54728180e-01
7.73289885e-01 6.18256493e-01 -1.40645022e-01
9.86122026e-01 -7.41913536e-02 1.48524978e-01
9.47210994e-02 -2.65489232e-01 9.59451798e-01
-5.00228585e-01 -2.17900383e-01 8.38030193e-01
3.38083374e-02 9.44850724e-01 -3.25749324e-01
-4.44933229e-01 7.58824842e-01 -4.75622869e-01
2.01281448e-01 2.63652392e-01 9.43386184e-01
-5.25861342e-02 1.33572234e-01 -9.89640666e-01
-1.95400699e-01 -7.10012883e-01 6.76537771e-01
4.20886365e-03 -6.33263405e-01 -7.73922618e-01
-7.85434401e-01 6.13120885e-01 -8.47065313e-02
-6.18106296e-01 2.16181243e-01 -7.55782266e-01
4.45901647e-04 8.78367673e-01 4.77987667e-01
3.01853671e-01 5.26200174e-03 9.53342025e-01
6.86050281e-01 7.18916537e-01 1.11778949e-01
-6.44359827e-01 -4.04344088e-01 6.49083377e-01
-8.75799205e-01 4.00604230e-01 -2.69241113e-01
-5.86913917e-01 6.95202187e-01 4.15003452e-01
8.56659240e-01 3.04781664e-01 4.16227077e-01
