-3.43768394e-01 9.27711449e-01 1.45515491e-01
8.43520955e-01 -5.20212509e-01 -1.33608919e-01
5.88030629e-01 4.06466395e-01 6.99288960e-01
4.66823867e-01 -6.04876566e-01 -6.45135503e-01
-8.57984051e-01 4.82561696e-01 -1.76061290e-01
6.33394367e-01 3.31370679e-01 -6.99288960e-01
-7.52473250e-01 6.58616008e-01 2.99366588e-03
-3.98714692e-01 -4.08903603e-01 8.20868100e-01
5.79949096e-02 -7.12482660e-01 6.99288960e-01
-6.59791406e-01 -4.50935499e-01 6.01109371e-01
-7.30694273e-01 -5.69315809e-01 -3.76782947e-01
-3.24958153e-02 -8.84144927e-01 -4.66081291e-01
9.58289016e-01 -2.58290735e-01 -1.22344013e-01
-6.77485932e-01 -6.24349607e-01 3.88844930e-01
-1.83411704e-01 -9.20199580e-01 3.45822034e-01
9.06040016e-01 2.37357792e-03 4.23185369e-01
-2.00862437e-01 -7.80533852e-01 5.91963839e-01
-8.72277726e-01 -4.70404321e-01 -1.33608919e-01
-7.97725321e-01 3.82625852e-01 4.66081291e-01
-6.70751519e-01 6.84230489e-01 -2.86218512e-01
7.81939875e-01 4.13930262e-01 -4.66081291e-01
-4.50964429e-01 -7.85840459e-01 4.23185369e-01
9.27936746e-01 2.38772611e-01 -2.86218512e-01
-4.55075587e-01 7.83466881e-01 4.23185369e-01
-1.27694817e-01 9.17457707e-01 -3.76782947e-01
6.43116588e-01 7.10267568e-01 2.86218512e-01
-3.18197812e-01 6.94658431e-01 6.45135503e-01
1.57624846e-01 2.99488163e-01 -9.40989505e-01
-4.68890771e-01 -8.78293610e-01 -9.34974904e-02
-8.43922224e-01 -3.81876801e-01 3.76782947e-01
-5.47463600e-01 -1.62662744e-01 -8.20868100e-01
9.35650064e-01 -5.70521815e-02 -3.48287247e-01
2.90426539e-01 7.06719611e-01 -6.45135503e-01
-9.32655127e-01 -9.40766046e-02 3.48287247e-01
-7.06146457e-01 -3.74198751e-01 -6.01109371e-01
1.80551934e-01 -2.86251203e-01 -9.40989505e-01
-1.20436208e-01 3.97439899e-01 -9.09690412e-01
-3.95009561e-01 -9.01831795e-01 1.75119560e-01
-6.47056938e-01 3.74325780e-02 7.61522240e-01
1.98621109e-01 -5.68709686e-01 -7.98197311e-01
-7.97639310e-01 -1.74706692e-01 5.77277319e-01
-9.58642802e-01 2.84596232e-01 -2.99366582e-03
3.06743793e-01 9.40602726e-01 -1.45515491e-01
9.72357659e-02 6.38551865e-01 7.63411240e-01
1.10813379e-02 -9.84316832e-01 -1.76061290e-01
6.61213959e-01 -7.35949280e-01 -1.45515491e-01
-6.79811199e-02 9.88699764e-01 1.33608919e-01
-4.10978371e-01 4.40429144e-01 7.98197311e-01
-2.57185226e-01 -9.23003100e-01 -2.86218512e-01
4.04411153e-01 -9.44191343e-02 -9.09690412e-01
2.91110905e-01 -5.79084035e-01 7.61522240e-01
8.88622065e-01 3.01260596e-01 3.45822034e-01
-5.26179193e-01 8.45218124e-01 -9.34974903e-02
7.60690754e-01 -7.17618270e-02 6.45135503e-01
-9.82057371e-01 6.99747093e-02 -1.75119560e-01
-7.49444060e-01 4.70214665e-01 -4.66081291e-01
1.66188068e-01 9.06190458e-01 -3.88844930e-01
9.46614819e-01 3.22352946e-01 2.99366582e-03
1.32861731e-01 5.55448757e-01 -8.20868100e-01
-6.06258939e-02 7.96863868e-01 6.01109371e-01
-2.01959655e-01 8.98894832e-01 3.88844930e-01
7.52676123e-01 -5.39919684e-01 3.76782947e-01
-9.36668051e-01 2.01821519e-01 2.86218512e-01
-1.67107332e-01 1.40285267e-02 9.85838902e-01
5.50120089e-01 -6.03422559e-01 5.77277319e-01
-4.42492942e-01 -6.22896604e-01 6.45135503e-01
6.10460725e-01 -2.11047343e-01 -7.63411240e-01
-7.57250406e-01 -1.01843045e-01 -6.45135503e-01
-3.77126083e-01 5.27124081e-01 -7.61522240e-01
6.45065886e-01 6.30387276e-02 -7.61522240e-01
-2.83974946e-01 -3.03020765e-01 -9.09690412e-01
-4.88002723e-01 -4.23150825e-01 -7.63411240e-01
8.38191968e-01 5.16175015e-01 1.76061290e-01
4.18845519e-01 1.89572646e-01 -8.88048784e-01
7.76393363e-01 2.16314953e-01 5.91963839e-01
8.03934709e-01 -1.42968112e-01 -5.77277319e-01
-2.88899330e-01 -7.86500638e-01 -5.45851558e-01
3.55946032e-01 5.41651457e-01 7.61522240e-01
-1.69366415e-01 2.93008139e-01 9.40989505e-01
2.32853834e-01 -9.72507136e-01 -2.99366588e-03
7.14046054e-02 -1.51733458e-01 9.85838902e-01
9.95069963e-01 3.30754859e-02 -9.34974903e-02
5.52725455e-01 5.86577688e-01 -5.91963839e-01
8.90229673e-01 -4.35476505e-01 1.33608919e-01
9.57027263e-02 1.37704931e-01 9.85838902e-01
-8.66116660e-01 4.67808030e-01 1.76061290e-01
-6.03672610e-01 3.82850272e-01 -6.99288960e-01
-1.54763562e-01 5.49748853e-01 8.20868100e-01
-6.31537486e-01 -7.61567887e-01 1.45515491e-01
8.79445587e-01 -2.74545224e-01 3.88844930e-01
-2.78153338e-01 7.67711937e-01 -5.77277319e-01
3.38435699e-01 1.71548684e-04 9.40989505e-01
-1.01083275e-01 1.33805200e-01 -9.85838902e-01
-3.38176780e-01 -1.32369602e-02 -9.40989505e-01
5.47800293e-01 -7.60664731e-01 3.48287247e-01
4.30428810e-01 -8.85473986e-01 -1.75119560e-01
5.04384254e-01 -4.03484576e-01 7.63411240e-01
-1.22458003e-01 6.34198168e-01 -7.63411240e-01
6.77138853e-01 -4.24441395e-01 -6.01109371e-01
-6.46025538e-01 3.06016265e-01 6.99288960e-01
8.46902713e-01 5.01755136e-01 -1.76061290e-01
-7.02830846e-01 -7.00757265e-01 -1.22344013e-01
2.95757270e-01 -2.91532144e-01 9.09690412e-01
-5.91827590e-01 1.12343917e-01 -7.98197311e-01
5.10766087e-01 6.64201837e-01 5.45851558e-01
3.62688557e-01 2.82535604e-01 8.88048784e-01
1.66420339e-01 2.06380836e-02 -9.85838902e-01
-4.18416393e-01 8.38822815e-01 -3.48287247e-01
-5.17233671e-01 -7.81770634e-01 -3.48287247e-01
7.25788968e-01 6.87910904e-01 -2.99366595e-03
4.14601869e-01 -3.92786013e-01 -8.20868100e-01
8.25579198e-01 1.43056160e-01 -5.45851558e-01
5.03319461e-01 -8.59027205e-01 9.34974903e-02
-7.05210361e-01 6.18938985e-01 3.45822034e-01
-4.00352878e-01 -1.10367237e-01 9.09690412e-01
6.80135138e-01 6.46392539e-01 -3.45822034e-01
9.12461014e-02 9.21796485e-01 3.76782947e-01
-4.26027289e-01 1.72829702e-01 8.88048784e-01
1.04595608e-01 4.01899381e-01 9.09690412e-01
-7.84353907e-01 1.85385442e-01 -5.91963839e-01
6.33387319e-02 -4.55365306e-01 8.88048784e-01
-9.47303500e-01 -2.96054086e-01 1.22344013e-01
-9.67957752e-01 -2.04653446e-01 -1.45515491e-01
-2.67939804e-01 -5.90162808e-01 -7.61522240e-01
7.20417300e-01 -3.45928370e-01 6.01109371e-01
7.30042109e-01 -6.72361853e-01 1.22344013e-01
-8.30598708e-01 1.10235488e-01 5.45851558e-01
-5.75530926e-01 5.64218899e-01 5.91963839e-01
-4.52480325e-02 -4.57517182e-01 -8.88048784e-01
4.23678374e-01 8.00881252e-01 -4.23185369e-01
9.75305880e-01 -1.66143563e-01 1.45515491e-01
2.47519222e-01 7.78129252e-01 5.77277319e-01
-6.53370651e-02 -1.54443283e-01 -9.85838902e-01
-1.75933642e-01 -5.76132282e-01 7.98197311e-01
3.93206481e-01 4.56365769e-01 -7.98197311e-01
2.19724791e-01 -9.12210577e-01 -3.45822034e-01
-9.05422696e-01 -3.35243911e-02 -4.23185369e-01
5.51628561e-01 8.15499277e-01 -1.75119560e-01
-8.67877991e-01 -3.09172140e-01 -3.88844930e-01
2.17261391e-01 9.68415939e-01 1.22344013e-01
-5.36679867e-01 6.43444478e-01 -5.45851558e-01
-5.83504464e-01 7.93004212e-01 1.75119560e-01
5.86912013e-01 1.35703138e-01 7.98197311e-01
-1.69069284e-01 -2.93179687e-01 9.40989505e-01
2.31628451e-01 -7.71963129e-01 -5.91963839e-01
4.81744322e-01 -7.67356861e-01 -4.23185369e-01
-8.22248553e-01 -5.53223259e-01 1.33608919e-01
9.78514025e-01 1.08827582e-01 1.75119560e-01
-2.55458170e-01 9.59048000e-01 -1.22344013e-01
7.01689923e-01 -5.97018318e-01 -3.88844930e-01
3.84854834e-01 8.54741335e-01 3.48287247e-01
5.53478254e-01 -1.40845250e-01 8.20868100e-01
3.19832621e-01 -7.74437326e-01 5.45851558e-01
-2.97217568e-02 -7.14220952e-01 -6.99288960e-01
-1.94141569e-01 -9.80968954e-01 2.99366587e-03
4.92279652e-01 8.65401042e-01 9.34974902e-02
6.74989530e-02 -8.82163319e-01 4.66081291e-01
-9.95599113e-01 -6.37383657e-03 9.34974904e-02
2.90076038e-02 7.98640146e-01 -6.01109371e-01
2.87567709e-02 9.90616831e-01 -1.33608919e-01
-8.99859929e-01 2.65818038e-01 -3.45822034e-01
-3.73597486e-01 2.67944537e-01 -8.88048784e-01
-5.25781371e-01 -6.24743825e-01 -5.77277319e-01
2.93551463e-01 -9.12089086e-01 2.86218512e-01
8.58389090e-01 -3.48141898e-01 -3.76782947e-01
2.79246916e-02 -9.83983045e-01 1.76061290e-01
-6.01620019e-01 -2.35067289e-01 7.63411240e-01
7.30226368e-01 4.99537468e-01 4.66081291e-01
