4.06553246e-01 8.93691653e-01 1.89813894e-01
2.80865315e-01 8.13515959e-01 5.09220839e-01
-5.14421875e-01 -4.45340315e-01 -7.32832049e-01
2.25259161e-12 4.68520993e-01 8.83451914e-01
4.21365496e-01 -6.71910916e-01 6.09086648e-01
1.55278090e-01 9.42044497e-01 2.97389329e-01
4.30530847e-01 -8.90286223e-01 1.48437676e-01
8.72694278e-01 4.33972657e-01 -2.23768831e-01
-5.03983720e-01 7.57071220e-01 -4.15744758e-01
-1.47919046e-01 -1.63795879e-01 -9.75341814e-01
-2.68382404e-01 -4.91182676e-02 9.62059020e-01
2.60910826e-01 5.69809026e-01 -7.79258408e-01
7.58980353e-01 5.57422368e-02 -6.48723445e-01
-2.52206803e-01 9.67190718e-01 -3.05551970e-02
6.94821922e-01 -1.94939081e-01 6.92257735e-01
-7.02675818e-01 6.81376452e-01 -2.04872664e-01
-9.56505901e-01 2.87821184e-01 4.74901841e-02
-2.70941902e-01 -4.03704189e-01 -8.73850207e-01
4.27177427e-01 3.40406715e-01 -8.37641491e-01
-2.73315656e-01 -8.66515241e-01 4.17671869e-01
-2.80865315e-01 8.13515959e-01 5.09220839e-01
3.04069766e-01 7.26142840e-02 -9.49878651e-01
5.03983720e-01 7.57071220e-01 -4.15744758e-01
-9.47948166e-01 -1.78859077e-01 2.63445535e-01
1.42009845e-01 -9.39480503e-01 -3.11785290e-01
8.33096471e-01 5.52690232e-01 2.19913728e-02
4.47502061e-01 -8.41371448e-01 -3.03045274e-01
-5.14158484e-01 -6.67146874e-01 -5.39033101e-01
-4.47502061e-01 -8.41371448e-01 -3.03045273e-01
-9.07346215e-01 2.74421661e-02 -4.19487888e-01
-8.36593565e-01 2.92512743e-01 -4.63193028e-01
6.66606682e-01 -2.05391397e-01 -7.16554608e-01
4.13813404e-11 -8.27327280e-01 -5.61720760e-01
-8.33096471e-01 5.52690232e-01 2.19913728e-02
-5.21818198e-01 7.52835616e-01 4.01178021e-01
-8.70942101e-01 3.97085552e-01 2.89452239e-01
-4.39757162e-01 -1.78158570e-01 -8.80269209e-01
-8.64880207e-01 -4.18486333e-01 -2.77221455e-01
5.54512571e-11 -9.97991122e-01 -6.33563107e-02
6.78015360e-01 5.18164505e-01 5.21344595e-01
-1.39485019e-01 -3.10216648e-01 9.40377010e-01
1.69272754e-10 -6.44077413e-01 -7.64960806e-01
1.44742354e-01 6.72608111e-01 7.25704660e-01
-8.39519685e-01 -2.25206103e-01 -4.94458639e-01
-1.48548179e-01 -9.72638088e-01 1.78630060e-01
5.56878799e-01 8.08110107e-02 -8.26653613e-01
9.67689679e-01 1.62622341e-01 -1.92693450e-01
-1.40531367e-01 -7.47498589e-01 6.49227609e-01
2.73315656e-01 -8.66515241e-01 4.17671869e-01
-3.03107730e-11 -9.02930551e-01 4.29786367e-01
1.40531367e-01 -7.47498589e-01 6.49227609e-01
-9.67689679e-01 1.62622341e-01 -1.92693450e-01
1.46238112e-10 -4.14032514e-01 -9.10262533e-01
-1.62302796e-01 3.10992046e-01 -9.36452020e-01
-7.58980353e-01 5.57422367e-02 -6.48723445e-01
7.26550158e-01 6.31803580e-01 2.70090239e-01
4.34495896e-01 6.17364658e-01 6.55799921e-01
-6.78015360e-01 5.18164505e-01 5.21344595e-01
7.11361284e-01 -4.65615648e-01 -5.26467199e-01
-4.30530847e-01 -8.90286223e-01 1.48437676e-01
9.64405666e-01 -1.54127807e-01 -2.14863988e-01
4.15410242e-01 2.05741018e-01 8.86061078e-01
-2.60910826e-01 5.69809026e-01 -7.79258408e-01
-5.92431310e-01 -8.02581565e-01 -6.99158956e-02
9.47948166e-01 -1.78859077e-01 2.63445535e-01
8.11081008e-01 2.64368501e-01 5.21781973e-01
-8.58155447e-01 -2.88051508e-02 5.12580830e-01
6.91672074e-01 1.14879347e-01 7.13016061e-01
-5.23573327e-01 -4.78714183e-02 8.50634269e-01
8.19654972e-01 -3.16244621e-01 4.77655506e-01
6.25073376e-01 7.77938792e-01 6.39864321e-02
-6.94821922e-01 -1.94939081e-01 6.92257735e-01
-2.89447359e-01 4.54719001e-01 8.42288606e-01
-4.79073801e-01 8.64795111e-01 -1.50391501e-01
-4.27177427e-01 3.40406715e-01 -8.37641491e-01
8.36593566e-01 2.92512743e-01 -4.63193028e-01
-6.86588172e-11 9.96940436e-01 7.81629933e-02
-5.56878799e-01 8.08110106e-02 -8.26653613e-01
-8.56429901e-01 -4.64080899e-01 2.26178448e-01
-2.79017019e-01 -5.31898244e-01 7.99520659e-01
-1.40942459e-01 2.22698778e-01 9.64644848e-01
-2.74237469e-01 -6.31400704e-01 -7.25346591e-01
-6.91672074e-01 1.14879347e-01 7.13016061e-01
-6.87594778e-01 -6.59326564e-01 -3.04141913e-01
8.70942101e-01 3.97085553e-01 2.89452239e-01
5.79239657e-01 -4.49343914e-01 6.80125768e-01
2.67207556e-01 7.71953443e-01 -5.76791338e-01
9.28646180e-12 8.27487300e-02 -9.96570815e-01
-4.34495896e-01 6.17364658e-01 6.55799921e-01
7.06088837e-01 5.43994664e-01 -4.53330528e-01
8.13175317e-01 -5.79411184e-01 -5.50342893e-02
1.40942459e-01 2.22698778e-01 9.64644848e-01
2.70941903e-01 -4.03704189e-01 -8.73850207e-01
-1.44742354e-01 6.72608111e-01 7.25704660e-01
2.52206803e-01 9.67190718e-01 -3.05551969e-02
9.07346215e-01 2.74421662e-02 -4.19487888e-01
2.89447359e-01 4.54719001e-01 8.42288606e-01
1.39485019e-01 -3.10216648e-01 9.40377010e-01
4.39757162e-01 -1.78158570e-01 -8.80269209e-01
5.14421875e-01 -4.45340315e-01 -7.32832049e-01
1.98469419e-11 8.85041720e-01 -4.65511852e-01
-2.56463342e-01 9.09888015e-01 -3.26083383e-01
6.87594778e-01 -6.59326564e-01 -3.04141913e-01
-5.72655915e-01 3.72060882e-01 7.30503422e-01
-4.21365496e-01 -6.71910916e-01 6.09086648e-01
5.72655915e-01 3.72060882e-01 7.30503422e-01
-5.33472727e-11 -4.34497502e-02 9.99055237e-01
-2.70099458e-01 -8.09627876e-01 -5.21104202e-01
1.48548179e-01 -9.72638088e-01 1.78630060e-01
8.64880207e-01 -4.18486333e-01 -2.77221454e-01
-9.64405666e-01 -1.54127807e-01 -2.14863988e-01
-1.42009845e-01 -9.39480503e-01 -3.11785290e-01
-5.27155137e-01 -7.63735120e-01 3.72580243e-01
-8.11081008e-01 2.64368501e-01 5.21781973e-01
2.99442459e-01 -9.50545354e-01 -8.24502836e-02
-4.06553246e-01 8.93691653e-01 1.89813894e-01
-4.19567810e-01 -3.00917471e-01 8.56394156e-01
-4.15410243e-01 2.05741019e-01 8.86061078e-01
2.79017019e-01 -5.31898245e-01 7.99520659e-01
1.47919046e-01 -1.63795878e-01 -9.75341814e-01
-8.19654972e-01 -3.16244620e-01 4.77655506e-01
5.01204716e-01 5.76771978e-01 -6.45080044e-01
-6.66606682e-01 -2.05391397e-01 -7.16554608e-01
-5.01204716e-01 5.76771978e-01 -6.45080045e-01
1.62302796e-01 3.10992046e-01 -9.36452020e-01
2.70099458e-01 -8.09627876e-01 -5.21104202e-01
4.19567810e-01 -3.00917471e-01 8.56394156e-01
9.56505901e-01 2.87821184e-01 4.74901842e-02
2.74237469e-01 -6.31400704e-01 -7.25346591e-01
-1.14474576e-11 8.46212776e-01 5.32844551e-01
-7.11361284e-01 -4.65615649e-01 -5.26467200e-01
2.56463342e-01 9.09888015e-01 -3.26083382e-01
-9.47087372e-01 -3.20939692e-01 4.82716095e-03
5.14158484e-01 -6.67146874e-01 -5.39033101e-01
5.23573327e-01 -4.78714184e-02 8.50634269e-01
-7.26550158e-01 6.31803580e-01 2.70090239e-01
8.56429900e-01 -4.64080899e-01 2.26178448e-01
8.58155447e-01 -2.88051507e-02 5.12580830e-01
6.94153990e-01 -5.60667124e-01 4.51444805e-01
9.99256746e-01 -1.63919228e-02 3.48889327e-02
-2.99442459e-01 -9.50545354e-01 -8.24502837e-02
-6.97321040e-01 -6.96709923e-01 1.68341019e-01
-1.72733324e-11 9.79385048e-01 -2.02002059e-01
-7.06088837e-01 5.43994663e-01 -4.53330528e-01
-6.56482154e-01 3.33115380e-01 -6.76805553e-01
7.02675818e-01 6.81376453e-01 -2.04872664e-01
-2.67207556e-01 7.71953443e-01 -5.76791338e-01
5.27155137e-01 -7.63735120e-01 3.72580243e-01
-1.87076917e-11 5.16412522e-01 -8.56340254e-01
9.47087372e-01 -3.20939692e-01 4.82716106e-03
-1.55278091e-01 9.42044497e-01 2.97389329e-01
6.97321041e-01 -6.96709923e-01 1.68341020e-01
2.68382404e-01 -4.91182676e-02 9.62059020e-01
5.92431310e-01 -8.02581565e-01 -6.99158956e-02
4.79073801e-01 8.64795111e-01 -1.50391501e-01
6.56482154e-01 3.33115380e-01 -6.76805553e-01
8.39519685e-01 -2.25206102e-01 -4.94458639e-01
-1.41584169e-11 7.28002201e-01 -6.85575039e-01
-3.04069766e-01 7.26142839e-02 -9.49878651e-01
-9.99256746e-01 -1.63919228e-02 3.48889325e-02
-8.13175317e-01 -5.79411184e-01 -5.50342894e-02
-1.00708806e-10 -5.54465165e-01 8.32206636e-01
-5.79239657e-01 -4.49343914e-01 6.80125768e-01
5.21818198e-01 7.52835616e-01 4.01178021e-01
-6.25073376e-01 7.77938792e-01 6.39864319e-02
9.50495712e-01 1.15696553e-01 2.88395491e-01
-6.94153990e-01 -5.60667124e-01 4.51444805e-01
-8.72694278e-01 4.33972657e-01 -2.23768831e-01
-9.50495712e-01 1.15696553e-01 2.88395491e-01
