8.99209402e-01 4.15562633e-01 1.36858131e-01
2.79737932e-01 2.32799034e-01 -9.31424339e-01
-3.64163122e-01 -9.31275071e-01 1.05812755e-02
-6.26789954e-01 3.75856390e-01 6.82544012e-01
-9.59410575e-01 7.04366384e-02 -2.73075132e-01
-2.05744196e-01 -4.97771746e-01 8.42551254e-01
7.11735840e-01 2.31093558e-01 6.63345959e-01
7.16859353e-01 -5.27584516e-01 4.55814927e-01
-8.85326233e-01 -4.37525321e-01 -1.57381874e-01
-8.87270054e-02 5.17295374e-01 8.51195051e-01
5.28800959e-01 7.25327228e-01 4.40760659e-01
-4.19411760e-01 8.95808449e-01 1.47040808e-01
4.65663964e-01 3.96168535e-01 -7.91332777e-01
-8.37248845e-01 -3.44961663e-01 4.24282716e-01
-2.37376640e-01 -8.23460773e-01 5.15329686e-01
-4.96678687e-01 -3.94594911e-01 7.73049247e-01
5.28793269e-01 9.72919695e-02 8.43155947e-01
4.19411760e-01 -8.95808449e-01 1.47040808e-01
-6.18723973e-01 7.26560722e-01 -2.98814596e-01
-5.53856247e-02 8.60579687e-01 5.06295402e-01
8.64052084e-01 5.35813365e-02 5.00542742e-01
-1.06560741e-01 -9.56278953e-01 2.72351561e-01
3.84039339e-01 6.35586101e-01 6.69734346e-01
-3.98827574e-02 -2.69759520e-01 9.62101433e-01
-8.99209402e-01 -4.15562633e-01 1.36858131e-01
1.27735843e-02 2.72392490e-01 -9.62101433e-01
-7.44781180e-02 8.53749568e-01 -5.15329686e-01
-4.32982807e-01 8.89176761e-01 -1.47954644e-01
9.95316507e-01 -9.66697999e-02 -1.11205444e-10
-5.28800959e-01 -7.25327228e-01 4.40760659e-01
3.46696162e-01 -8.28729174e-01 4.39328723e-01
3.68388047e-01 8.87040170e-01 2.78298371e-01
-8.50169495e-01 -7.55499971e-02 -5.21060484e-01
-2.72178351e-01 1.58041717e-02 9.62117027e-01
2.54553169e-01 -6.97609196e-01 -6.69734346e-01
-9.36173205e-01 -1.99726409e-01 -2.89290668e-01
-8.19741346e-01 2.37739558e-01 5.21060484e-01
3.79339927e-01 -8.13530123e-01 -4.40760659e-01
-6.11271282e-01 -5.30599862e-01 -5.87206272e-01
9.08350936e-01 -3.37015505e-01 -2.47626992e-01
-7.46975015e-01 -5.93917642e-01 2.98814596e-01
9.59410575e-01 -7.04366384e-02 -2.73075133e-01
-3.80724325e-01 4.78373729e-01 7.91332777e-01
-8.04986428e-01 -3.79775727e-01 -4.55814927e-01
-5.91114969e-01 7.43167598e-01 3.13504408e-01
9.30823922e-01 -3.64766074e-01 2.26392791e-02
5.15898787e-01 9.76262081e-02 -8.51068485e-01
-4.99692125e-01 -7.46523980e-01 -4.39328723e-01
5.53856249e-02 -8.60579688e-01 5.06295402e-01
-5.95998240e-01 -7.89237303e-01 1.47954644e-01
7.38367040e-02 7.03251952e-01 7.07096056e-01
6.18723973e-01 -7.26560722e-01 -2.98814596e-01
-9.83620159e-01 -1.78826300e-01 -2.26392792e-02
7.84584608e-01 -5.99714882e-01 1.57381874e-01
-2.29711130e-01 2.82279112e-01 9.31424339e-01
-3.84039339e-01 -6.35586101e-01 6.69734346e-01
1.90806065e-01 -9.41351721e-01 -2.78298371e-01
-7.84584608e-01 5.99714882e-01 1.57381874e-01
-1.64683925e-01 9.51802060e-01 2.58750930e-01
-5.15898787e-01 -9.76262079e-02 -8.51068485e-01
7.55218194e-01 -4.99629518e-01 -4.24282716e-01
-7.55218194e-01 4.99629519e-01 -4.24282716e-01
-8.37591988e-01 2.18852977e-01 -5.00542742e-01
9.36173205e-01 1.99726409e-01 -2.89290668e-01
6.35063530e-01 -7.72451651e-01 3.57198803e-03
-3.06500102e-01 -2.49839186e-01 9.18497724e-01
5.83957000e-01 7.98356576e-01 -1.47040808e-01
-1.78147801e-01 9.83946847e-01 -1.05812754e-02
3.06500102e-01 2.49839186e-01 9.18497724e-01
-3.56759481e-01 -6.44654788e-01 -6.76123418e-01
9.66697999e-02 9.95316507e-01 1.13003490e-10
8.85326233e-01 4.37525321e-01 -1.57381874e-01
8.04986428e-01 3.79775728e-01 -4.55814927e-01
1.06110561e-01 -5.28060540e-01 -8.42551254e-01
6.28729645e-02 7.04316802e-01 -7.07096056e-01
-9.66697999e-02 -9.95316507e-01 -1.18824708e-10
5.40504787e-01 -6.21859657e-01 -5.66696694e-01
6.87402771e-01 2.48215838e-01 -6.82544011e-01
7.03797150e-01 -6.47672780e-02 -7.07442415e-01
6.11271282e-01 5.30599862e-01 -5.87206272e-01
1.06560741e-01 9.56278953e-01 2.72351561e-01
6.50069699e-01 5.06225488e-01 5.66696694e-01
5.95998241e-01 7.89237303e-01 1.47954644e-01
-6.53963146e-01 3.63736639e-01 -6.63345959e-01
-9.56227039e-01 -1.55918961e-01 2.47626992e-01
3.56759481e-01 6.44654788e-01 -6.76123418e-01
7.46975015e-01 5.93917642e-01 2.98814596e-01
8.80241863e-01 -3.76145147e-01 2.89290668e-01
-1.06110561e-01 5.28060540e-01 -8.42551254e-01
-3.79339927e-01 8.13530123e-01 -4.40760659e-01
-7.71840164e-01 -6.35806577e-01 -3.57198813e-03
-6.28729646e-02 -7.04316802e-01 -7.07096056e-01
2.70132572e-01 -3.68676043e-02 -9.62117027e-01
-7.38367039e-02 -7.03251952e-01 7.07096056e-01
-2.70132572e-01 3.68676045e-02 -9.62117027e-01
1.64683925e-01 -9.51802060e-01 2.58750930e-01
8.50169495e-01 7.55499973e-02 -5.21060484e-01
-3.68388047e-01 -8.87040170e-01 2.78298371e-01
3.98827575e-02 2.69759520e-01 9.62101433e-01
6.53963146e-01 -3.63736639e-01 -6.63345959e-01
-7.11735840e-01 -2.31093559e-01 6.63345959e-01
-5.28793269e-01 -9.72919697e-02 8.43155947e-01
-8.80241863e-01 3.76145146e-01 2.89290669e-01
-3.44765134e-01 -9.02321982e-01 -2.58750930e-01
2.72178351e-01 -1.58041719e-02 9.62117027e-01
-1.86613956e-01 -4.90552970e-01 -8.51195051e-01
-7.03106543e-01 7.18777966e-02 7.07442415e-01
-1.90806065e-01 9.41351721e-01 -2.78298371e-01
7.71840164e-01 6.35806577e-01 -3.57198813e-03
2.05744196e-01 4.97771745e-01 8.42551254e-01
-9.08350936e-01 3.37015505e-01 -2.47626992e-01
4.97741056e-01 -6.38312334e-01 5.87206272e-01
-4.97741056e-01 6.38312333e-01 5.87206272e-01
7.44781179e-02 -8.53749568e-01 -5.15329686e-01
6.26789954e-01 -3.75856390e-01 6.82544011e-01
1.17021664e-10 -8.42866034e-11 1.00000000e-00
8.87270056e-02 -5.17295374e-01 8.51195051e-01
-2.19955335e-01 -8.33837284e-01 -5.06295402e-01
-4.65663965e-01 -3.96168535e-01 -7.91332777e-01
1.86613956e-01 4.90552970e-01 -8.51195051e-01
-5.83957000e-01 -7.98356576e-01 -1.47040808e-01
-9.30823922e-01 3.64766074e-01 2.26392793e-02
-2.26038050e-01 7.01258813e-01 6.76123419e-01
-1.27735845e-02 -2.72392490e-01 -9.62101433e-01
8.19741346e-01 -2.37739558e-01 5.21060484e-01
2.52694007e-01 -3.04150736e-01 -9.18497724e-01
8.02434669e-01 -5.80834274e-01 -1.36858131e-01
5.00187777e-01 -1.97231427e-01 -8.43155947e-01
-4.87469975e-01 1.95078080e-01 8.51068485e-01
8.37591988e-01 -2.18852977e-01 -5.00542742e-01
2.19955335e-01 8.33837284e-01 -5.06295402e-01
4.87469975e-01 -1.95078081e-01 8.51068485e-01
9.83620159e-01 1.78826300e-01 -2.26392793e-02
-5.00187777e-01 1.97231427e-01 -8.43155947e-01
4.99692125e-01 7.46523980e-01 -4.39328723e-01
9.55033506e-01 -1.15503135e-01 2.73075132e-01
3.64163122e-01 9.31275071e-01 1.05812756e-02
-7.03797150e-01 6.47672782e-02 -7.07442415e-01
2.26038050e-01 -7.01258813e-01 6.76123418e-01
8.37248845e-01 3.44961663e-01 4.24282716e-01
4.96678687e-01 3.94594911e-01 7.73049247e-01
-7.94515648e-02 -9.58911923e-01 -2.72351561e-01
-2.54553169e-01 6.97609196e-01 -6.69734346e-01
7.23077755e-01 6.15527047e-01 -3.13504408e-01
3.80724325e-01 -4.78373729e-01 7.91332777e-01
-7.23077756e-01 -6.15527047e-01 -3.13504408e-01
-3.46696162e-01 8.28729174e-01 4.39328723e-01
-6.50069699e-01 -5.06225488e-01 5.66696694e-01
-9.55033506e-01 1.15503135e-01 2.73075133e-01
-6.35063530e-01 7.72451651e-01 3.57198828e-03
7.03106543e-01 -7.18777967e-02 7.07442415e-01
2.37376640e-01 8.23460773e-01 5.15329686e-01
-2.79737932e-01 -2.32799034e-01 -9.31424339e-01
-3.89015561e-11 1.18535180e-10 -1.00000000e-00
3.44765134e-01 9.02321982e-01 -2.58750930e-01
-6.87402771e-01 -2.48215838e-01 -6.82544011e-01
1.78147801e-01 -9.83946847e-01 -1.05812757e-02
-7.16859352e-01 5.27584516e-01 4.55814927e-01
-8.64052084e-01 -5.35813366e-02 5.00542742e-01
-2.52694007e-01 3.04150736e-01 -9.18497724e-01
-9.95316507e-01 9.66697999e-02 5.42530120e-11
-8.02434669e-01 5.80834274e-01 -1.36858131e-01
9.56227039e-01 1.55918961e-01 2.47626992e-01
4.32982807e-01 -8.89176761e-01 -1.47954644e-01
-4.11462198e-01 4.82797806e-01 -7.73049247e-01
2.29711131e-01 -2.82279113e-01 9.31424339e-01
7.94515648e-02 9.58911923e-01 -2.72351561e-01
4.11462198e-01 -4.82797806e-01 -7.73049247e-01
5.91114969e-01 -7.43167598e-01 3.13504408e-01
-5.40504787e-01 6.21859657e-01 -5.66696693e-01
