-4.16788554e-01 -8.13608396e-01 4.05374740e-01
-9.79072421e-01 1.18647405e-01 -1.65348077e-01
3.42729654e-01 3.89439633e-02 -9.38626524e-01
-7.48159446e-01 -6.25875967e-01 -2.20310500e-01
9.13306306e-01 -6.15381589e-02 4.02597374e-01
-7.56050092e-01 3.54578254e-01 -5.50147725e-01
-3.53991612e-01 5.13813703e-01 7.81463638e-01
7.74116204e-01 5.30307584e-01 3.45713710e-01
-6.08569916e-01 -1.37685294e-01 -7.81463638e-01
-1.38908474e-01 -2.22302981e-01 -9.65031513e-01
-4.86122455e-02 -2.57586935e-01 9.65031513e-01
-5.24479160e-01 6.02164862e-01 -6.01929472e-01
8.66154464e-03 -8.48198060e-01 -5.29608373e-01
4.08427136e-01 -9.02747693e-01 -1.35032879e-01
-7.74116204e-01 -5.30307584e-01 3.45713710e-01
-6.53893307e-01 -3.75991582e-01 -6.56546932e-01
-7.13065889e-01 5.73979435e-01 -4.02597374e-01
-4.04351600e-01 -3.02732131e-01 -8.63048689e-01
-3.44728399e-01 -6.54492006e-01 6.72906045e-01
-6.28328072e-01 7.76234904e-01 5.16062703e-02
-4.14720338e-01 1.61233940e-02 9.09806066e-01
-4.25395173e-01 -7.29368794e-01 -5.35779907e-01
4.04351600e-01 3.02732131e-01 -8.63048690e-01
-1.83734684e-01 -4.89814986e-01 -8.52245766e-01
7.93791463e-01 8.70403554e-02 6.01929472e-01
-6.50055295e-01 -5.89959991e-01 -4.78931438e-01
-1.97032836e-01 -4.84618630e-01 8.52245766e-01
-1.25610295e-01 9.67308295e-01 2.20310500e-01
-1.40155893e-01 1.78094362e-03 9.90127847e-01
9.12277887e-01 3.86671925e-01 1.35032879e-01
-9.19765636e-02 4.96676224e-01 8.63048689e-01
2.09484901e-01 -9.14657371e-01 -3.45713710e-01
-6.16157693e-01 4.25554345e-01 6.62761795e-01
6.16157693e-01 -4.25554344e-01 6.62761795e-01
-5.34516466e-01 1.21821813e-01 -8.36332227e-01
9.85622083e-01 -1.22496461e-01 1.16377518e-01
1.83734683e-01 4.89814986e-01 -8.52245766e-01
1.97032836e-01 4.84618630e-01 8.52245766e-01
5.56826853e-01 -3.73298376e-01 -7.42018987e-01
-1.62548694e-01 9.85269356e-01 -5.31245568e-02
-9.37524448e-01 -1.43741117e-01 -3.16838130e-01
5.89829065e-01 1.73426954e-01 7.88685467e-01
-6.98324225e-01 -3.75595130e-01 6.09320585e-01
8.25449293e-01 3.89260758e-01 -4.08790322e-01
3.42846885e-01 -8.45781583e-01 4.08790322e-01
-9.88145694e-01 -1.44585198e-01 -5.16062703e-02
4.75871674e-01 4.33214797e-01 7.65422164e-01
5.90590600e-01 8.06518437e-01 -2.70324531e-02
6.62399645e-01 -1.03123868e-01 7.42018988e-01
1.81811140e-01 8.24551151e-01 5.35779907e-01
5.81438227e-01 6.17611981e-01 5.29608373e-01
-3.15983231e-01 5.27380158e-01 -7.88685467e-01
-3.92779064e-01 9.08299027e-01 1.43935696e-01
1.25610295e-01 -9.67308295e-01 2.20310501e-01
3.88766765e-01 9.10932874e-01 1.38064122e-01
-1.53978861e-01 -9.44428526e-01 2.90422571e-01
-7.34146141e-01 5.23702531e-01 4.32163284e-01
-3.42729654e-01 -3.89439634e-02 -9.38626524e-01
-6.22911597e-01 7.51284545e-01 -2.18065757e-01
8.07552237e-01 -5.78200362e-01 -1.16377518e-01
-4.08427136e-01 9.02747693e-01 -1.35032879e-01
2.25737723e-01 -7.19714254e-01 6.56546932e-01
-8.94714421e-01 1.12787412e-01 -4.32163284e-01
9.79072422e-01 -1.18647405e-01 -1.65348077e-01
8.65704209e-01 2.77188990e-01 4.16800295e-01
-6.22682887e-01 -7.42513954e-01 2.46858361e-01
8.85791164e-01 -3.62356121e-01 -2.89951814e-01
-9.13306306e-01 6.15381590e-02 4.02597374e-01
3.31834532e-01 9.33179587e-01 -1.38064122e-01
8.00128153e-01 -5.76589067e-01 1.65348077e-01
3.15983231e-01 -5.27380158e-01 -7.88685467e-01
-5.91690223e-01 7.41293652e-01 3.16838130e-01
1.12687868e-01 9.93262650e-01 2.70324529e-02
-8.66154469e-03 8.48198060e-01 -5.29608373e-01
-4.14265017e-02 -6.89379503e-01 7.23214868e-01
9.67248069e-01 1.29917279e-01 2.18065757e-01
9.88145694e-01 1.44585198e-01 -5.16062704e-02
1.90340963e-01 7.14820098e-01 -6.72906045e-01
-8.07552237e-01 5.78200362e-01 -1.16377518e-01
9.31415428e-01 -3.63957828e-01 2.17533484e-13
1.40155893e-01 -1.78094349e-03 9.90127847e-01
2.58666323e-01 -7.49546635e-01 -6.09320585e-01
1.38908474e-01 2.22302981e-01 -9.65031513e-01
-8.25449293e-01 -3.89260758e-01 -4.08790322e-01
9.37524448e-01 1.43741117e-01 -3.16838130e-01
-5.27129716e-01 -7.98616925e-01 -2.90422571e-01
-1.90340964e-01 -7.14820098e-01 -6.72906044e-01
-3.88766765e-01 -9.10932874e-01 1.38064122e-01
-7.41441052e-01 1.04937932e-01 -6.62761795e-01
-1.04231773e-01 9.37154391e-02 -9.90127847e-01
4.16788554e-01 8.13608396e-01 4.05374739e-01
-4.75871674e-01 -4.33214797e-01 7.65422164e-01
3.53991612e-01 -5.13813703e-01 7.81463638e-01
-3.31834532e-01 -9.33179587e-01 -1.38064122e-01
7.78476761e-02 -8.74393742e-01 4.78931439e-01
-7.60944744e-02 3.96826870e-01 -9.14733877e-01
-2.25737723e-01 7.19714254e-01 6.56546932e-01
-2.25526390e-01 2.60994435e-01 9.38626524e-01
7.48159446e-01 6.25875967e-01 -2.20310501e-01
-5.56826853e-01 3.73298376e-01 -7.42018987e-01
8.09845317e-01 1.49534719e-01 -5.67265309e-01
4.86122456e-02 2.57586935e-01 9.65031513e-01
4.36942346e-01 5.34828608e-01 -7.23214869e-01
-9.85622083e-01 1.22496461e-01 1.16377518e-01
-5.81438227e-01 -6.17611981e-01 5.29608373e-01
-9.04539229e-01 -4.01361806e-01 -1.43935696e-01
4.75500897e-01 -2.72850332e-01 8.36332227e-01
6.22682887e-01 7.42513954e-01 2.46858361e-01
5.24479160e-01 -6.02164862e-01 -6.01929472e-01
8.96792484e-01 -3.34202314e-01 2.89951814e-01
-4.75500896e-01 2.72850332e-01 8.36332227e-01
-8.65704209e-01 -2.77188990e-01 4.16800295e-01
-2.45251367e-01 -8.80637887e-01 -4.05374740e-01
7.34146141e-01 -5.23702530e-01 4.32163284e-01
-2.58666323e-01 7.49546635e-01 -6.09320585e-01
5.34516466e-01 -1.21821814e-01 -8.36332227e-01
-1.81811140e-01 -8.24551151e-01 5.35779907e-01
1.53978861e-01 9.44428526e-01 2.90422571e-01
7.56050092e-01 -3.54578254e-01 -5.50147725e-01
6.08569916e-01 1.37685294e-01 -7.81463638e-01
7.41441052e-01 -1.04937932e-01 -6.62761795e-01
-5.60825938e-02 6.41080068e-01 -7.65422164e-01
-4.48420790e-01 7.90693562e-01 -4.16800295e-01
-4.36942346e-01 -5.34828608e-01 -7.23214868e-01
-4.57032898e-02 -9.67973222e-01 -2.46858361e-01
4.25395173e-01 7.29368794e-01 -5.35779907e-01
-7.78476761e-02 8.74393742e-01 4.78931438e-01
2.45251368e-01 8.80637887e-01 -4.05374740e-01
3.92779064e-01 -9.08299027e-01 1.43935696e-01
3.15779759e-01 -2.69325205e-01 -9.09806066e-01
9.19765636e-02 -4.96676224e-01 8.63048690e-01
5.91690223e-01 -7.41293652e-01 3.16838130e-01
4.48420790e-01 -7.90693562e-01 -4.16800295e-01
4.57032897e-02 9.67973222e-01 -2.46858361e-01
2.25526390e-01 -2.60994435e-01 9.38626524e-01
1.04231773e-01 -9.37154392e-02 -9.90127847e-01
-2.09484901e-01 9.14657371e-01 -3.45713710e-01
3.24980112e-01 2.40103854e-01 9.14733877e-01
5.60825938e-02 -6.41080068e-01 -7.65422164e-01
-8.85791164e-01 3.62356121e-01 -2.89951814e-01
-3.15779760e-01 2.69325205e-01 -9.09806066e-01
-5.89829065e-01 -1.73426954e-01 7.88685467e-01
9.04539228e-01 4.01361806e-01 -1.43935696e-01
-8.00128153e-01 5.76589067e-01 1.65348077e-01
1.62548694e-01 -9.85269356e-01 -5.31245566e-02
5.27129716e-01 7.98616925e-01 -2.90422571e-01
-9.67248069e-01 -1.29917279e-01 2.18065757e-01
7.13065889e-01 -5.73979435e-01 -4.02597374e-01
-3.24980112e-01 -2.40103853e-01 9.14733877e-01
7.60944744e-02 -3.96826870e-01 -9.14733877e-01
8.94714421e-01 -1.12787412e-01 -4.32163284e-01
-7.93791463e-01 -8.70403553e-02 6.01929472e-01
4.14265018e-02 6.89379503e-01 7.23214868e-01
-7.96150461e-01 2.51956194e-01 5.50147725e-01
-7.87489186e-01 -6.14034659e-01 5.31245568e-02
-6.62399645e-01 1.03123868e-01 7.42018987e-01
6.50055295e-01 5.89959991e-01 -4.78931439e-01
3.44728399e-01 6.54492006e-01 6.72906044e-01
-8.96792484e-01 3.34202314e-01 2.89951814e-01
6.98324225e-01 3.75595130e-01 6.09320585e-01
6.22911597e-01 -7.51284545e-01 -2.18065757e-01
7.96150461e-01 -2.51956193e-01 5.50147725e-01
4.93909186e-01 -6.58986939e-01 5.67265309e-01
-5.90590600e-01 -8.06518437e-01 -2.70324529e-02
-3.42846885e-01 8.45781583e-01 4.08790322e-01
-1.12687868e-01 -9.93262649e-01 2.70324530e-02
4.14720338e-01 -1.61233939e-02 9.09806066e-01
6.28328073e-01 -7.76234904e-01 5.16062704e-02
-9.12277887e-01 -3.86671925e-01 1.35032879e-01
6.53893307e-01 3.75991582e-01 -6.56546932e-01
-4.93909186e-01 6.58986939e-01 5.67265309e-01
7.87489186e-01 6.14034659e-01 5.31245566e-02
-8.09845317e-01 -1.49534719e-01 -5.67265309e-01
-9.31415428e-01 3.63957828e-01 6.19901998e-13
