4.15931315e-02 1.58702529e-01 9.86449958e-01
6.80494742e-01 -7.12320595e-01 1.71832118e-01
-3.64189912e-01 2.47886301e-01 8.97729408e-01
-6.50309310e-01 -6.39975705e-01 4.09302941e-01
4.74957738e-01 1.23003716e-01 -8.71369745e-01
7.88737119e-01 5.88991639e-01 1.76018765e-01
8.29029018e-01 2.73265716e-01 -4.87890086e-01
2.83381715e-01 -8.68791045e-01 4.06075023e-01
9.76300081e-01 -4.80645006e-02 2.11016481e-01
-5.34265429e-01 7.36028510e-01 4.15719236e-01
9.62394249e-01 -2.65306802e-01 5.83918763e-02
-1.72169422e-01 9.73248582e-01 1.52134441e-01
-4.15931315e-02 -1.58702529e-01 9.86449958e-01
4.90534832e-01 -9.50500689e-03 8.71369745e-01
5.76580971e-01 2.32204579e-01 7.83348848e-01
2.30130948e-01 9.56589666e-01 -1.78818223e-01
4.67025596e-02 -6.07029194e-01 -7.93306012e-01
-2.35629725e-01 -5.69654817e-01 -7.87383021e-01
9.53441740e-02 -6.01311118e-01 7.93306012e-01
5.84494686e-01 -8.09041250e-01 -6.17917286e-02
-6.80494742e-01 7.12320595e-01 1.71832118e-01
7.06139014e-01 -4.49087510e-02 7.06647647e-01
4.96300119e-01 -3.53050372e-01 -7.93121445e-01
-8.88010123e-01 2.16229662e-01 -4.05811230e-01
8.88010123e-01 -2.16229662e-01 -4.05811230e-01
2.96775214e-01 3.25586214e-01 -8.97729408e-01
-3.89020529e-02 -3.82483354e-01 -9.23143063e-01
-3.30191624e-01 7.09389971e-01 6.22687209e-01
-7.80994777e-01 4.71718412e-01 -4.09302941e-01
-4.41587045e-01 8.49973611e-01 -2.87307748e-01
-7.11242830e-01 -6.93821828e-01 -1.12893345e-01
3.96067340e-01 -7.44330260e-01 -5.37683109e-01
-9.53441741e-02 6.01311118e-01 7.93306012e-01
-2.33179652e-01 3.78833908e-01 -8.95607124e-01
6.34874709e-01 4.54500595e-01 6.24790615e-01
5.83815853e-01 -2.92423572e-01 7.57395210e-01
7.71942936e-01 -6.23190310e-01 -1.25450954e-01
1.56678438e-01 7.66624097e-01 -6.22687209e-01
6.76473845e-01 2.07442135e-01 -7.06647647e-01
-5.76580971e-01 -2.32204579e-01 7.83348848e-01
3.22684028e-01 2.13537481e-01 9.22104529e-01
-7.41786278e-02 -9.10824136e-01 -4.06075023e-01
-3.61312260e-01 4.99481159e-01 7.87383021e-01
-1.38969022e-01 -4.22581934e-01 8.95607124e-01
1.38969022e-01 4.22581934e-01 8.95607124e-01
4.38404712e-01 6.62782873e-01 6.07058622e-01
7.80994777e-01 -4.71718412e-01 -4.09302941e-01
3.30191624e-01 -7.09389971e-01 6.22687209e-01
-9.93161182e-01 -1.16751300e-01 4.15649240e-11
-3.96067340e-01 7.44330260e-01 -5.37683109e-01
3.17901640e-01 -9.45552444e-01 -6.97791041e-02
4.34590311e-01 6.60661368e-01 -6.12092982e-01
-1.56678438e-01 -7.66624097e-01 -6.22687209e-01
-6.06377038e-01 -7.85219043e-01 1.25450954e-01
6.00767511e-01 7.00667903e-01 -3.84893346e-01
-9.76300081e-01 4.80645006e-02 2.11016481e-01
6.34099488e-01 -6.84737228e-01 -3.59239152e-01
-6.14711945e-01 9.21618558e-02 -7.83348848e-01
-4.74957738e-01 -1.23003716e-01 -8.71369745e-01
6.66622063e-01 4.87228734e-01 -5.64112742e-01
3.22805395e-01 -5.86047484e-01 -7.43199181e-01
-3.22684028e-01 -2.13537481e-01 9.22104529e-01
-4.34590311e-01 -6.60661368e-01 -6.12092982e-01
7.77202688e-01 1.99678744e-01 5.96728063e-01
-9.18583890e-01 -1.63731907e-01 3.59715859e-01
-4.90534832e-01 9.50500690e-03 8.71369745e-01
4.96752058e-01 8.50712123e-01 -1.71832118e-01
9.31512068e-01 5.37565648e-02 -3.59715859e-01
9.38538017e-01 2.73163750e-01 -2.11016481e-01
-8.13656534e-01 -4.16269492e-01 4.05811230e-01
-5.00085324e-01 -4.19841833e-01 -7.57395210e-01
8.13656534e-01 4.16269492e-01 4.05811230e-01
5.00085324e-01 4.19841833e-01 -7.57395210e-01
-8.74631550e-01 -4.81258807e-01 -5.83918763e-02
-3.22805395e-01 5.86047484e-01 -7.43199181e-01
9.93161182e-01 1.16751300e-01 -3.72245858e-11
6.50309310e-01 6.39975706e-01 4.09302941e-01
7.41786278e-02 9.10824136e-01 -4.06075023e-01
-2.30130948e-01 -9.56589666e-01 -1.78818223e-01
-2.96775214e-01 -3.25586214e-01 -8.97729408e-01
-9.03825308e-01 3.90022060e-01 -1.76018765e-01
-8.52754368e-01 5.09965764e-01 1.12893345e-01
-6.66622063e-01 -4.87228734e-01 -5.64112742e-01
-4.96752058e-01 -8.50712123e-01 -1.71832118e-01
-1.93753100e-01 -9.31671495e-02 -9.76616413e-01
8.74631550e-01 4.81258807e-01 -5.83918762e-02
-1.24600996e-01 7.84336323e-01 -6.07693281e-01
-4.96300119e-01 3.53050372e-01 -7.93121445e-01
-4.58018360e-01 -8.13121402e-01 3.59239152e-01
-8.94855083e-01 3.07951096e-01 3.23110667e-01
-8.29029018e-01 -2.73265716e-01 -4.87890086e-01
7.22968212e-01 -2.94879047e-01 -6.24790615e-01
-9.31512068e-01 -5.37565648e-02 -3.59715859e-01
8.94855083e-01 -3.07951096e-01 3.23110667e-01
7.72632546e-02 -1.44730338e-01 -9.86449958e-01
-5.82261254e-02 9.86643213e-01 -1.52134441e-01
-6.34099488e-01 6.84737228e-01 -3.59239152e-01
-5.84494686e-01 8.09041250e-01 -6.17917286e-02
4.00895718e-01 4.58520442e-01 7.93121445e-01
2.33179652e-01 -3.78833908e-01 -8.95607124e-01
3.89020529e-02 3.82483353e-01 -9.23143063e-01
-4.45695793e-01 8.77142693e-01 1.78818223e-01
-6.00767511e-01 -7.00667903e-01 -3.84893346e-01
-8.02321439e-01 1.39974087e-02 -5.96728063e-01
9.82988899e-01 -1.03964932e-01 -1.51407124e-01
7.46878441e-01 -5.42245062e-01 3.84893346e-01
-7.72632546e-02 1.44730338e-01 -9.86449958e-01
9.32080857e-01 3.29091414e-01 1.51407124e-01
8.52754368e-01 -5.09965764e-01 1.12893345e-01
-5.75953775e-01 5.41866617e-01 6.12092982e-01
2.32434877e-01 9.29208419e-01 2.87307748e-01
1.93753100e-01 9.31671494e-02 -9.76616413e-01
1.24600996e-01 -7.84336323e-01 -6.07693281e-01
-4.00895718e-01 -4.58520442e-01 7.93121445e-01
-4.38404712e-01 -6.62782873e-01 6.07058622e-01
-9.82988899e-01 1.03964932e-01 -1.51407124e-01
3.49011208e-01 8.39862306e-01 -4.15719236e-01
1.84468601e-02 -9.27488730e-01 3.73395728e-01
-4.67025595e-02 6.07029194e-01 -7.93306012e-01
-5.80156178e-01 5.43045705e-01 -6.07058622e-01
3.61312260e-01 -4.99481159e-01 7.87383021e-01
3.80939057e-01 9.22533044e-01 6.17917286e-02
-3.80939057e-01 -9.22533044e-01 6.17917285e-02
-1.78097398e-01 -6.44931232e-01 7.43199181e-01
-2.32434877e-01 -9.29208419e-01 2.87307748e-01
-7.71942936e-01 6.23190310e-01 -1.25450954e-01
5.82261254e-02 -9.86643213e-01 -1.52134441e-01
4.58018360e-01 8.13121402e-01 3.59239152e-01
-9.38538018e-01 -2.73163750e-01 -2.11016481e-01
-9.32080857e-01 -3.29091414e-01 1.51407124e-01
1.26541592e-01 -3.63034586e-01 9.23143063e-01
-8.69800133e-01 7.35594500e-02 4.87890086e-01
-7.46878441e-01 5.42245062e-01 3.84893346e-01
9.03825308e-01 -3.90022060e-01 -1.76018765e-01
-3.49011208e-01 -8.39862306e-01 -4.15719236e-01
6.14711945e-01 -9.21618558e-02 -7.83348848e-01
3.64189912e-01 -2.47886301e-01 8.97729408e-01
-7.22968212e-01 2.94879047e-01 -6.24790615e-01
6.06377038e-01 7.85219043e-01 1.25450954e-01
5.75953775e-01 -5.41866617e-01 6.12092982e-01
6.06879207e-02 -7.91849640e-01 6.07693281e-01
-3.17901640e-01 9.45552444e-01 -6.97791041e-02
8.02321439e-01 -1.39974087e-02 -5.96728063e-01
7.61439920e-01 -3.19352567e-01 5.64112742e-01
-8.99560726e-02 -9.93498254e-01 6.97791042e-02
1.97145973e-01 -9.06481713e-01 -3.73395728e-01
5.80156178e-01 -5.43045705e-01 -6.07058622e-01
2.12655415e-01 8.15888809e-01 5.37683109e-01
1.78097398e-01 6.44931231e-01 7.43199181e-01
-9.62394249e-01 2.65306802e-01 5.83918763e-02
-3.63407666e-01 1.32883809e-01 -9.22104529e-01
7.99044163e-01 5.07077826e-01 -3.23110667e-01
7.11242830e-01 6.93821828e-01 -1.12893345e-01
2.10077049e-01 -4.56948000e-02 9.76616413e-01
-1.84468601e-02 9.27488730e-01 3.73395728e-01
-7.99044163e-01 -5.07077826e-01 -3.23110667e-01
4.45695793e-01 -8.77142693e-01 1.78818223e-01
-2.12655415e-01 -8.15888809e-01 5.37683109e-01
-1.97145973e-01 9.06481713e-01 -3.73395728e-01
-7.06139014e-01 4.49087511e-02 7.06647647e-01
-7.77202688e-01 -1.99678744e-01 5.96728063e-01
-1.26541592e-01 3.63034586e-01 9.23143063e-01
-6.34874709e-01 -4.54500595e-01 6.24790615e-01
-7.88737119e-01 -5.88991639e-01 1.76018765e-01
9.18583890e-01 1.63731907e-01 3.59715859e-01
-7.61439920e-01 3.19352567e-01 5.64112742e-01
-6.06879206e-02 7.91849640e-01 6.07693281e-01
-6.76473845e-01 -2.07442135e-01 -7.06647647e-01
5.34265429e-01 -7.36028510e-01 4.15719236e-01
-5.83815853e-01 2.92423572e-01 7.57395210e-01
-2.10077049e-01 4.56948001e-02 9.76616413e-01
8.99560726e-02 9.93498254e-01 6.97791041e-02
1.72169422e-01 -9.73248582e-01 1.52134441e-01
3.63407666e-01 -1.32883809e-01 -9.22104529e-01
8.69800133e-01 -7.35594500e-02 4.87890086e-01
4.41587045e-01 -8.49973611e-01 -2.87307748e-01
-2.83381715e-01 8.68791045e-01 4.06075023e-01
2.35629725e-01 5.69654817e-01 -7.87383021e-01
