4.21772538e-01 7.82674473e-01 4.57742936e-01
-4.51782316e-01 4.08242122e-01 -7.93240889e-01
8.50589537e-01 1.34746309e-01 5.08272438e-01
9.24257070e-01 -3.71141901e-01 -8.94570197e-02
-2.05241277e-01 3.26463644e-01 -9.22657850e-01
5.66580109e-01 -7.40708782e-01 3.61022826e-01
8.86123167e-02 9.82726178e-01 1.62471894e-01
-6.09967645e-01 -7.56364344e-01 2.36331234e-01
5.37152515e-01 -5.93652517e-01 5.99202691e-01
6.63819810e-01 7.09570862e-01 -2.36331234e-01
9.24725212e-01 3.76322074e-02 -3.78770511e-01
-5.01613704e-01 -3.03460446e-01 -8.10120639e-01
5.16727000e-01 5.30787864e-01 -6.71756988e-01
7.19786246e-02 2.26696742e-01 -9.71302046e-01
6.30650459e-02 -7.86324553e-01 6.14586445e-01
-2.03247927e-01 -7.42805773e-01 6.37910546e-01
-1.31159842e-02 -6.98458860e-01 -7.15530007e-01
-6.96851948e-01 3.73626203e-01 6.12209786e-01
1.47006926e-02 8.61070856e-01 -5.08272438e-01
-1.63005287e-01 9.31536239e-01 -3.25068471e-01
-5.66580109e-01 7.40708782e-01 3.61022826e-01
6.62817542e-01 -4.49031225e-01 -5.99202691e-01
-4.22745953e-01 -8.66337321e-01 -2.65980273e-01
-3.37657629e-01 9.33155061e-01 -1.23324602e-01
8.44994967e-01 4.91985271e-01 -2.09604387e-01
6.33463154e-01 6.09797602e-01 4.76310106e-01
-5.16727000e-01 -5.30787864e-01 -6.71756988e-01
1.98121152e-01 -3.81392249e-01 9.02932978e-01
-8.61129794e-01 -2.93774922e-01 -4.14911765e-01
8.75360662e-01 -3.01284996e-01 3.78115145e-01
-4.21772538e-01 -7.82674473e-01 4.57742936e-01
-8.86123168e-02 -9.82726178e-01 1.62471894e-01
4.05312684e-01 -1.42946376e-01 -9.02932978e-01
9.45169567e-01 -3.13843734e-02 3.25068471e-01
9.60737234e-01 2.24915209e-01 -1.62471894e-01
-7.66748297e-02 -3.46782219e-01 9.34806431e-01
-2.14430634e-01 -1.02916659e-01 9.71302046e-01
-7.07164502e-01 -3.04940164e-01 -6.37910546e-01
8.66404898e-01 -4.75582533e-01 1.52196605e-01
2.75259824e-01 8.07008663e-01 -5.22464398e-01
-1.98121152e-01 3.81392249e-01 9.02932978e-01
-4.20519713e-01 8.24737599e-01 -3.78115145e-01
4.96517792e-01 -8.63404612e-01 8.94570198e-02
-6.33463154e-01 -6.09797602e-01 4.76310106e-01
2.37451536e-01 -7.79757409e-01 -5.79305749e-01
6.33913016e-01 -2.04932218e-01 -7.45759394e-01
-9.24257070e-01 3.71141901e-01 -8.94570198e-02
5.39188203e-01 8.42044700e-01 -1.53884710e-02
6.41071893e-01 -6.59986759e-01 -3.91719678e-01
-7.16140926e-01 -5.26890480e-01 -4.57742936e-01
-7.49391462e-02 1.26569989e-01 9.89122926e-01
7.49391461e-02 -1.26569989e-01 9.89122926e-01
7.08781902e-01 -6.94460320e-01 1.23907547e-01
7.07164502e-01 3.04940164e-01 -6.37910546e-01
2.74058317e-01 6.32164458e-01 -7.24748327e-01
4.67236236e-01 -6.37878889e-01 -6.12209786e-01
-7.58540904e-01 -6.51443698e-01 1.53884709e-02
7.60687358e-01 3.85208641e-01 5.22464398e-01
2.39573256e-01 -5.78930630e-01 -7.79386926e-01
6.89790613e-01 1.10479494e-01 7.15530007e-01
-7.08781902e-01 6.94460320e-01 1.23907547e-01
-1.47006926e-02 -8.61070856e-01 -5.08272438e-01
-6.62817542e-01 4.49031225e-01 -5.99202691e-01
6.09967645e-01 7.56364344e-01 2.36331234e-01
-3.00519072e-02 5.93095745e-01 8.04570892e-01
-8.50589537e-01 -1.34746309e-01 5.08272438e-01
-8.12541760e-01 4.57644412e-01 -3.61022826e-01
8.61129794e-01 2.93774922e-01 -4.14911765e-01
-6.63819810e-01 -7.09570862e-01 -2.36331234e-01
-2.07970706e-02 9.94883345e-01 -9.88666358e-02
4.67306109e-01 -3.90376603e-01 7.93240889e-01
5.15408333e-01 7.12378364e-01 -4.76310106e-01
-5.91860922e-01 7.91540803e-01 -1.52196604e-01
9.93037160e-01 -5.46985507e-02 -1.04332489e-01
-4.67236236e-01 6.37878889e-01 -6.12209786e-01
-8.66404898e-01 4.75582533e-01 1.52196604e-01
-1.22766513e-02 -4.85262344e-01 -8.74282415e-01
-4.78798320e-01 -7.98900964e-02 8.74282415e-01
5.91484378e-01 5.30274528e-02 -8.04570892e-01
4.78798320e-01 7.98900966e-02 8.74282415e-01
2.05241277e-01 -3.26463644e-01 -9.22657850e-01
4.53466256e-01 5.85756693e-01 6.71756988e-01
3.69223395e-01 9.05394988e-01 2.09604387e-01
-4.05312684e-01 1.42946376e-01 -9.02932978e-01
-3.46089750e-01 8.87115119e-01 3.05366420e-01
2.91408557e-01 -5.99102645e-01 7.45759394e-01
1.31159841e-02 6.98458860e-01 -7.15530007e-01
-7.87429612e-01 -4.73086525e-02 -6.14586445e-01
8.11067126e-01 -2.14567643e-01 -5.44179055e-01
7.66748297e-02 3.46782219e-01 9.34806431e-01
3.66839523e-01 3.22810649e-01 8.72480400e-01
-5.37152515e-01 5.93652517e-01 5.99202691e-01
9.18106846e-02 -9.20925458e-01 3.78770511e-01
4.22745953e-01 8.66337321e-01 -2.65980273e-01
-9.11793432e-01 -2.87540269e-01 2.93177985e-01
8.05267878e-01 -1.26287348e-01 5.79305749e-01
-9.26738499e-01 2.18876913e-01 -3.05366420e-01
-1.70701286e-01 -8.93705376e-01 4.14911765e-01
-6.41071893e-01 6.59986759e-01 -3.91719678e-01
-9.71150770e-01 2.04101015e-01 1.23324602e-01
-8.44994967e-01 -4.91985271e-01 -2.09604387e-01
7.16140926e-01 5.26890480e-01 -4.57742936e-01
-3.69223395e-01 -9.05394988e-01 2.09604387e-01
-9.45169567e-01 3.13843735e-02 3.25068471e-01
4.51782316e-01 -4.08242122e-01 -7.93240889e-01
5.91860922e-01 -7.91540803e-01 -1.52196604e-01
9.26738499e-01 -2.18876913e-01 -3.05366420e-01
3.37657629e-01 -9.33155061e-01 -1.23324602e-01
-5.91484378e-01 -5.30274529e-02 -8.04570892e-01
-9.93037160e-01 5.46985507e-02 -1.04332489e-01
5.87722482e-01 3.59613886e-01 7.24748327e-01
2.14430634e-01 1.02916659e-01 9.71302046e-01
1.57455961e-01 9.43002805e-01 -2.93177985e-01
-6.30650459e-02 7.86324553e-01 6.14586445e-01
-2.74280939e-01 -9.60734503e-01 -4.19425854e-02
4.20519713e-01 -8.24737599e-01 -3.78115145e-01
-8.11067126e-01 2.14567643e-01 -5.44179055e-01
-2.37451536e-01 7.79757409e-01 -5.79305749e-01
-4.96517792e-01 8.63404612e-01 8.94570196e-02
6.06703227e-01 -1.56419993e-01 7.79386926e-01
-4.53466256e-01 -5.85756693e-01 6.71756988e-01
-3.32685042e-01 -1.24328597e-01 -9.34806431e-01
2.07970706e-02 -9.94883345e-01 -9.88666358e-02
-8.75360662e-01 3.01284996e-01 3.78115145e-01
1.70701286e-01 8.93705376e-01 4.14911765e-01
3.32685042e-01 1.24328597e-01 -9.34806431e-01
-3.66839523e-01 -3.22810649e-01 8.72480401e-01
-2.30473775e-01 -5.39060655e-01 8.10120639e-01
-7.86594777e-01 6.04909561e-01 -1.23907547e-01
-2.68446528e-01 -4.08306763e-01 -8.72480400e-01
-2.91408557e-01 5.99102645e-01 7.45759394e-01
7.43007630e-01 -5.42674263e-01 3.91719678e-01
3.51915635e-01 -1.57663814e-01 9.22657850e-01
-9.18106846e-02 9.20925458e-01 3.78770511e-01
-6.06703227e-01 1.56419993e-01 7.79386926e-01
-1.92772661e-01 9.75681010e-01 1.04332489e-01
-9.13044947e-01 -4.05696616e-01 4.19425855e-02
9.88046911e-01 1.18273790e-01 9.88666358e-02
9.13044947e-01 4.05696616e-01 4.19425855e-02
-5.87722482e-01 -3.59613886e-01 7.24748327e-01
2.30473775e-01 5.39060655e-01 8.10120639e-01
-7.60687358e-01 -3.85208641e-01 5.22464398e-01
-8.05267878e-01 1.26287348e-01 5.79305749e-01
-9.60737234e-01 -2.24915209e-01 -1.62471894e-01
-7.43007630e-01 5.42674263e-01 3.91719678e-01
-6.89790613e-01 -1.10479494e-01 7.15530007e-01
2.03247927e-01 7.42805773e-01 6.37910546e-01
3.00519073e-02 -5.93095745e-01 8.04570892e-01
-5.15408333e-01 -7.12378364e-01 -4.76310106e-01
7.98848894e-01 5.39532149e-01 2.65980273e-01
-7.19786246e-02 -2.26696742e-01 -9.71302046e-01
2.74280939e-01 9.60734503e-01 -4.19425855e-02
7.86594777e-01 -6.04909561e-01 -1.23907547e-01
1.92772661e-01 -9.75681010e-01 1.04332489e-01
-7.98848894e-01 -5.39532149e-01 2.65980273e-01
8.12541760e-01 -4.57644412e-01 -3.61022826e-01
-4.67306109e-01 3.90376603e-01 7.93240889e-01
-2.75259824e-01 -8.07008663e-01 -5.22464398e-01
-3.25677086e-01 7.73177594e-01 5.44179055e-01
3.25677086e-01 -7.73177594e-01 5.44179055e-01
1.22766514e-02 4.85262344e-01 -8.74282415e-01
-6.33913016e-01 2.04932218e-01 -7.45759394e-01
-2.39573256e-01 5.78930630e-01 -7.79386926e-01
-9.24725212e-01 -3.76322073e-02 -3.78770511e-01
5.01613704e-01 3.03460446e-01 -8.10120639e-01
-1.57455961e-01 -9.43002805e-01 -2.93177985e-01
6.96851948e-01 -3.73626203e-01 6.12209786e-01
-3.51915635e-01 1.57663814e-01 9.22657850e-01
-5.39188203e-01 -8.42044700e-01 -1.53884709e-02
9.11793432e-01 2.87540269e-01 2.93177985e-01
7.58540904e-01 6.51443698e-01 1.53884708e-02
-9.88046911e-01 -1.18273790e-01 9.88666358e-02
-2.74058317e-01 -6.32164458e-01 -7.24748327e-01
1.63005287e-01 -9.31536240e-01 -3.25068471e-01
2.68446528e-01 4.08306763e-01 -8.72480401e-01
1.35791059e-01 -5.65387126e-02 -9.89122926e-01
7.87429612e-01 4.73086524e-02 -6.14586445e-01
9.71150770e-01 -2.04101015e-01 1.23324602e-01
3.46089750e-01 -8.87115119e-01 3.05366420e-01
-1.35791059e-01 5.65387125e-02 -9.89122926e-01
