-5.11112912e-01 6.00447027e-01 6.15001593e-01
-4.34478880e-02 5.05072178e-01 8.61982817e-01
8.68521698e-01 -3.31088086e-01 3.68850566e-01
5.73519733e-01 -2.83448883e-01 7.68590819e-01
1.90012597e-01 6.13167286e-01 7.66760127e-01
6.20500515e-01 6.64801738e-01 -4.15954035e-01
6.38613886e-01 -3.79533641e-02 -7.68590819e-01
4.22963056e-01 -9.63131344e-02 9.01013892e-01
4.25785083e-01 -5.86245005e-01 -6.89219745e-01
6.47799345e-01 7.43983017e-01 -1.63845292e-01
-1.50568734e-01 -2.15012893e-01 -9.64934460e-01
-2.56070721e-01 5.76998594e-02 9.64934460e-01
-2.10612186e-01 -8.08399006e-01 5.49666766e-01
6.78257706e-01 4.60600543e-01 -5.72550106e-01
8.34312929e-01 4.22892646e-02 -5.49666766e-01
4.15116113e-01 -1.25907027e-01 -9.01013892e-01
-6.89053536e-01 2.24011980e-01 -6.89219745e-01
-7.24698953e-01 3.83402926e-01 5.72550106e-01
5.94293392e-01 -6.74800975e-01 4.37560292e-01
9.06360126e-01 -7.41185749e-02 4.15954035e-01
-6.50116332e-01 -5.24609569e-01 -5.49666766e-01
-8.74662326e-01 4.84511619e-01 1.46392153e-02
-2.56140755e-01 5.88617722e-01 -7.66760127e-01
2.48022632e-01 3.55891473e-01 -9.01013892e-01
-8.19456217e-01 2.60362104e-02 -5.72550106e-01
-9.55133912e-01 5.26946223e-02 -2.91448945e-01
8.50562837e-01 2.91691364e-01 -4.37560292e-01
-5.07388890e-01 8.45997184e-01 -1.63845292e-01
-8.77431515e-01 1.96608565e-01 4.37560292e-01
9.18463394e-01 -1.42738409e-01 -3.68850566e-01
-6.70993996e-01 -6.81780441e-01 2.91448945e-01
2.41080691e-01 1.03834426e-01 9.64934460e-01
-5.22524831e-01 -8.41005637e-01 1.40275869e-01
-3.45268174e-01 -8.92102797e-01 -2.91448945e-01
5.40253344e-01 -7.18795740e-01 -4.37560292e-01
2.09589728e-01 -8.84903603e-01 4.15954035e-01
-2.61829697e-01 3.45860054e-01 -9.01013892e-01
2.60601883e-02 -7.88095113e-01 -6.15001593e-01
-2.99178071e-01 9.14848714e-01 2.71190546e-01
4.13116482e-01 6.71645601e-01 6.15001593e-01
6.41873865e-01 8.76639309e-03 7.66760127e-01
3.50571636e-01 8.39095805e-01 4.15954035e-01
2.48194072e-01 8.54470033e-02 -9.64934460e-01
6.47650305e-01 -5.02728016e-01 -5.72550106e-01
-2.97058465e-01 9.54747067e-01 -1.46392152e-02
-5.88582143e-01 -5.70751642e-01 5.72550106e-01
-6.85250543e-02 -9.92258945e-01 1.03568836e-01
8.24009230e-01 -3.84696023e-01 -4.15954035e-01
-8.76156878e-01 -4.70768118e-01 -1.03568836e-01
6.89126959e-01 2.23786008e-01 -6.89219745e-01
7.03750398e-01 -4.50113123e-01 5.49666766e-01
-6.99830345e-01 4.56184102e-01 -5.49666766e-01
4.11504812e-01 8.96559262e-01 1.63845292e-01
9.22518929e-01 -3.71796076e-01 1.03568836e-01
4.87711720e-01 -5.35829656e-01 6.89219745e-01
-5.14134108e-01 -3.84376153e-01 7.66760127e-01
-4.25977306e-01 -5.86105347e-01 -6.89219745e-01
-9.23485634e-02 -6.33040201e-01 7.68590819e-01
9.43586034e-01 1.57171588e-01 2.91448945e-01
-8.26952026e-01 -4.24381439e-01 -3.68850566e-01
-6.38960566e-01 -6.17114545e-02 -7.66760127e-01
-7.25516548e-01 6.68416382e-01 1.63845292e-01
-7.13156031e-01 -6.46424136e-01 -2.71190546e-01
-7.31083456e-01 -6.82130980e-01 1.46392152e-02
2.06687268e-01 -6.07749358e-01 7.66760127e-01
9.79840508e-01 -1.14312285e-01 1.63845292e-01
-3.58893076e-01 -6.29421880e-01 6.89219745e-01
4.78206679e-01 1.68237913e-01 -8.61982817e-01
-8.35163220e-01 4.78495647e-01 -2.71190546e-01
-3.20860899e-01 -9.47013187e-01 -1.46392152e-02
-1.34006032e-01 -2.25707490e-01 9.64934460e-01
6.45553852e-01 5.30213797e-01 5.49666766e-01
1.76979722e-01 -9.78750057e-01 -1.03568836e-01
8.03692688e-01 5.18782782e-01 -2.91448945e-01
-5.27797241e-01 8.43032365e-01 1.03568836e-01
-1.38758593e-01 -6.26757498e-01 -7.66760127e-01
6.60315496e-01 2.98260940e-01 6.89219745e-01
3.91035383e-02 -4.32024166e-01 9.01013892e-01
-4.64955175e-02 -9.28325065e-01 3.68850566e-01
-9.62523939e-01 -1.83145422e-03 2.71190546e-01
-8.41553922e-02 8.95242348e-01 4.37560292e-01
-1.45766013e-02 8.99070917e-01 -4.37560292e-01
-4.84313820e-01 6.22264545e-01 -6.15001593e-01
-1.22297728e-02 5.06789953e-01 -8.61982817e-01
3.07777754e-01 -4.02813204e-01 -8.61982817e-01
3.32024057e-01 -3.83073947e-01 8.61982817e-01
-7.41469952e-01 -2.68319495e-01 -6.15001593e-01
-2.45037047e-01 9.24669864e-01 -2.91448945e-01
4.66926050e-01 1.97397283e-01 8.61982817e-01
9.85536361e-01 -1.34132683e-01 -1.03568836e-01
-5.38957914e-01 -3.44662908e-01 -7.68590819e-01
-7.09519840e-01 1.46825541e-01 6.89219745e-01
-6.59152963e-01 6.55337036e-01 -3.68850566e-01
2.53979894e-12 -6.13650157e-11 1.00000000e-00
8.25420622e-01 3.56681634e-01 4.37560292e-01
2.17597393e-01 8.06546850e-01 -5.49666766e-01
1.42105057e-01 9.45972338e-01 2.91448945e-01
9.07750903e-01 -3.86190392e-01 -1.63845292e-01
9.92405470e-01 1.22135482e-01 1.46392152e-02
-7.76826550e-01 -4.72781929e-01 4.15954035e-01
6.38374839e-01 -7.56835680e-01 1.40275869e-01
6.05651244e-02 -7.86196481e-01 6.15001593e-01
-6.30594284e-01 -1.07791477e-01 7.68590819e-01
-2.85572860e-01 3.26530409e-01 9.01013892e-01
9.56913922e-01 1.03785514e-01 -2.71190546e-01
2.33438338e-01 5.95629663e-01 -7.68590819e-01
-2.51017711e-01 7.67567375e-02 -9.64934460e-01
-6.89694940e-01 5.92708302e-01 4.15954035e-01
-4.93778321e-01 1.14754489e-01 8.61982817e-01
-8.55760279e-01 4.27471470e-01 2.91448945e-01
-4.40518821e-01 7.95566094e-01 -4.15954035e-01
-2.77987805e-01 -7.71303543e-01 -5.72550106e-01
4.32115247e-01 8.95851500e-01 -1.03568836e-01
7.79774726e-01 -5.64275699e-01 2.71190546e-01
5.53203039e-01 -3.25645982e-01 -7.66760127e-01
1.18800214e-04 7.24552364e-01 -6.89219745e-01
7.77621723e-01 5.67239054e-01 2.71190546e-01
7.66432939e-01 -1.85347217e-01 6.15001593e-01
8.01511592e-01 -5.97800018e-01 -1.46392153e-02
-8.92756119e-01 -1.73114852e-01 -4.15954035e-01
9.17062179e-01 3.73255463e-01 1.40275869e-01
3.94408553e-01 -8.78007734e-01 -2.71190546e-01
1.73250438e-01 -1.97194760e-01 9.64934460e-01
9.29499002e-01 3.41107440e-01 -1.40275869e-01
-8.67784336e-02 -9.82661805e-01 -1.63845292e-01
-2.95694438e-01 -9.15980615e-01 2.71190546e-01
-5.24439622e-01 3.70191831e-01 7.66760127e-01
-2.61723898e-01 -4.34150003e-01 8.61982817e-01
-4.94341059e-01 4.06072741e-01 -7.68590819e-01
-7.18474452e-01 6.87799359e-01 -1.03568836e-01
-2.28463990e-01 7.87394806e-01 -5.72550106e-01
4.41063183e-01 -8.48834955e-01 2.91448945e-01
-7.29001633e-01 -3.00548930e-01 6.15001593e-01
2.22302007e-01 3.72499375e-01 9.01013892e-01
1.94069925e-01 -9.67208139e-01 1.63845292e-01
8.16222305e-01 5.77552458e-01 -1.46392153e-02
4.80656874e-01 4.25497213e-01 -7.66760127e-01
-9.61312944e-01 2.37065611e-01 1.40275869e-01
1.40693559e-01 8.07707681e-01 5.72550106e-01
-4.56874307e-03 2.62451166e-01 -9.64934460e-01
-9.64869741e-01 -2.41453677e-01 1.03568836e-01
7.57576034e-01 -2.18750071e-01 -6.15001593e-01
-3.04776176e-01 7.77803271e-01 5.49666766e-01
-2.97380137e-01 5.66421404e-01 7.68590819e-01
-2.87989566e-01 -4.17190164e-01 -8.61982817e-01
-3.40520269e-11 -2.80118060e-11 -1.00000000e-00
-5.51482566e-01 -8.22307521e-01 -1.40275869e-01
5.83271447e-01 7.23701375e-01 3.68850566e-01
1.96996775e-01 9.42150709e-01 -2.71190546e-01
4.46803251e-01 4.57859157e-01 7.68590819e-01
6.38673108e-01 7.62476333e-01 1.03568836e-01
-1.11234805e-01 -9.02556956e-01 -4.15954035e-01
1.90512410e-01 9.81575629e-01 1.46392153e-02
4.42147550e-01 6.52900134e-01 -6.15001593e-01
8.53323505e-03 -4.33706295e-01 -9.01013892e-01
-8.59898698e-01 -4.83455219e-01 1.63845292e-01
6.11643441e-01 -7.78598087e-01 -1.40275869e-01
-9.99814533e-01 1.25136804e-02 -1.46392152e-02
-9.52478412e-01 2.70384090e-01 -1.40275869e-01
-3.98795741e-01 -1.70692484e-01 9.01013892e-01
-8.59571672e-01 2.63965021e-01 -4.37560292e-01
8.11652354e-01 1.15787874e-01 5.72550106e-01
-4.85765095e-01 1.44975503e-01 -8.61982817e-01
-3.71814653e-02 9.89414079e-01 -1.40275869e-01
1.61246749e-01 -6.19086132e-01 -7.68590819e-01
-9.61382924e-01 -2.21128003e-01 -1.63845292e-01
-8.97257508e-01 -2.42648357e-01 3.68850566e-01
-2.42543771e-02 2.61367965e-01 9.64934460e-01
-4.58127107e-01 -7.73731572e-01 4.37560292e-01
4.22827902e-01 -9.06091750e-01 1.46392152e-02
-5.16667908e-01 -7.35931562e-01 -4.37560292e-01
3.60935183e-01 -7.36146840e-01 5.72550106e-01
-7.96143006e-02 7.20165054e-01 6.89219745e-01
-7.15992422e-02 9.87520242e-01 1.40275869e-01
1.57961115e-01 -2.09642013e-01 -9.64934460e-01
-4.09842284e-01 -1.42138205e-01 -9.01013892e-01
1.48068504e-01 -9.17619190e-01 -3.68850566e-01
-8.33915887e-01 -4.95049388e-02 5.49666766e-01
7.41746445e-01 -6.04044472e-01 -2.91448945e-01
-5.08040119e-01 7.78360134e-01 3.68850566e-01
2.98036354e-01 -7.80410647e-01 -5.49666766e-01
4.19573091e-01 8.29402002e-01 -3.68850566e-01
