-8.50463172e-01 4.22601176e-01 3.13240034e-01
-6.72486850e-01 -5.01983733e-01 5.43848763e-01
5.94228049e-01 7.96084084e-01 1.14641499e-01
-1.27233008e-02 4.04392317e-01 9.14495007e-01
2.65936938e-01 -4.54328704e-01 8.50211381e-01
9.94943469e-01 -9.23474907e-05 1.00434361e-01
-1.58654573e-01 -2.14682862e-01 9.63709466e-01
-6.97920790e-01 6.35439522e-01 3.30335878e-01
5.88308512e-01 -9.99245195e-02 -8.02441005e-01
1.14781636e-01 -8.53222462e-01 -5.08761977e-01
-5.03413221e-01 4.61296680e-01 7.30600728e-01
-8.84396886e-01 2.17199997e-01 -4.13119898e-01
9.40454922e-01 -1.77233431e-01 2.90054526e-01
-5.46195440e-01 8.20943753e-01 -1.66501042e-01
4.38521477e-01 3.61815562e-01 -8.22673617e-01
-3.57619174e-02 9.98021431e-01 5.17116172e-02
-4.70109275e-01 -5.08071914e-01 7.21704343e-01
9.57193064e-01 -2.85096116e-01 5.00143152e-02
-8.18581544e-01 -2.28987033e-01 -5.26774538e-01
-7.68813429e-01 -3.93687175e-02 6.38258041e-01
2.50572769e-02 -8.07358830e-01 5.89526394e-01
5.88984350e-01 -7.02999788e-01 -3.98610604e-01
2.77230667e-01 -6.69659503e-01 6.88982151e-01
-3.38516881e-01 8.82066996e-01 -3.27666777e-01
-6.45465008e-01 -2.78319477e-01 7.11273643e-01
-4.31057027e-01 2.27513320e-01 8.73168855e-01
4.94870335e-01 5.93667752e-01 -6.34558607e-01
6.53541377e-01 -2.20192569e-01 7.24151814e-01
1.43315815e-01 3.56330372e-02 -9.89037427e-01
-2.32870718e-01 -6.90975490e-01 6.84339987e-01
-3.64387408e-01 5.67582970e-01 -7.38291609e-01
-6.37918637e-01 -1.48055431e-01 -7.55739761e-01
-2.48314735e-01 9.43091927e-01 2.21170699e-01
9.15569010e-01 4.02137418e-01 -4.34778296e-03
9.79125289e-01 -1.20561334e-01 -1.63643891e-01
-3.25037813e-01 -1.58629351e-02 9.45565864e-01
1.96995182e-02 -6.27004095e-01 7.78764735e-01
7.95308158e-01 -3.18287359e-02 -6.05371304e-01
-6.82007806e-01 7.27270683e-01 7.70868397e-02
6.54709549e-01 6.73316011e-01 3.43510564e-01
-3.32645691e-01 1.58195127e-01 -9.29690843e-01
-3.67697498e-01 7.48923671e-01 -5.51284144e-01
-1.08945097e-01 -7.48702020e-01 -6.53895257e-01
-9.79125289e-01 1.20561335e-01 -1.63643891e-01
-5.81066436e-01 -7.09891048e-01 -3.98017807e-01
7.90165585e-01 5.82495500e-01 -1.90625662e-01
1.98240643e-01 9.63084415e-01 1.82121632e-01
-7.95308158e-01 3.18287360e-02 -6.05371304e-01
3.57619174e-02 -9.98021431e-01 5.17116170e-02
-3.40709786e-01 -7.76158009e-01 -5.30563683e-01
-4.95605133e-01 3.42206440e-01 -7.98294224e-01
-5.68699126e-01 -2.72021910e-02 8.22093596e-01
-6.10935763e-01 -7.78176765e-01 -1.45598863e-01
-1.68666301e-01 1.99546342e-01 9.65261037e-01
5.09784593e-01 -6.61419458e-01 5.50128759e-01
-7.90165585e-01 -5.82495500e-01 -1.90625662e-01
-4.05025386e-01 -1.02649953e-01 -9.08526968e-01
-2.65936938e-01 4.54328703e-01 8.50211381e-01
-9.48068449e-01 -2.41836505e-01 2.06592475e-01
-5.88984350e-01 7.02999788e-01 -3.98610604e-01
8.34098514e-01 4.67123183e-01 2.93384330e-01
-3.93151897e-11 -1.06038798e-10 9.99997893e-01
-7.71858077e-02 9.64676541e-01 -2.51878112e-01
9.30642450e-01 5.42095471e-02 -3.61894294e-01
2.74004531e-01 -9.58840515e-01 -7.44761511e-02
3.67697498e-01 -7.48923671e-01 -5.51284144e-01
-9.30642450e-01 -5.42095470e-02 -3.61894294e-01
-5.19361751e-02 2.24185821e-01 -9.73163631e-01
6.72486850e-01 5.01983733e-01 5.43848764e-01
1.58654573e-01 2.14682862e-01 9.63709466e-01
2.87145283e-02 5.04441021e-01 -8.62970665e-01
-7.74457458e-01 4.76507163e-01 -4.16122965e-01
-3.84887253e-01 -8.80881891e-01 -2.75517800e-01
2.67604783e-01 5.71042407e-01 -7.76080872e-01
-1.68769375e-02 9.38268280e-01 3.45494354e-01
-9.94943469e-01 9.23474518e-05 1.00434361e-01
-1.14781636e-01 8.53222463e-01 -5.08761977e-01
-9.40454922e-01 1.77233431e-01 2.90054526e-01
5.19361752e-02 -2.24185821e-01 -9.73163631e-01
-2.74004531e-01 9.58840515e-01 -7.44761510e-02
5.03413220e-01 -4.61296681e-01 7.30600728e-01
4.05025387e-01 1.02649953e-01 -9.08526968e-01
-4.68942722e-01 8.79651620e-01 7.94066474e-02
2.48314735e-01 -9.43091927e-01 2.21170699e-01
4.70109275e-01 5.08071914e-01 7.21704343e-01
9.81789699e-01 1.59131827e-01 -1.03761679e-01
-4.38521477e-01 -3.61815561e-01 -8.22673617e-01
5.81066436e-01 7.09891048e-01 -3.98017806e-01
7.20769365e-01 -2.90064827e-01 -6.29568559e-01
7.03698858e-01 -4.52493511e-01 5.47772974e-01
-2.50572770e-02 8.07358830e-01 5.89526394e-01
8.22746895e-01 2.83776551e-01 4.92500092e-01
2.67752323e-01 -8.37170466e-01 4.76919590e-01
-2.19353658e-01 4.07785796e-01 -8.86339919e-01
8.47376494e-01 -5.27247158e-01 6.29543195e-02
-7.82314785e-01 -6.18106914e-01 7.69876334e-02
8.50463172e-01 -4.22601176e-01 3.13240034e-01
3.25037813e-01 1.58629349e-02 9.45565864e-01
-4.91296027e-01 8.06754973e-01 3.28288356e-01
7.71858076e-02 -9.64676541e-01 -2.51878112e-01
3.84887253e-01 8.80881891e-01 -2.75517799e-01
-2.02582372e-01 -3.07518554e-01 -9.29729337e-01
-8.47376494e-01 5.27247158e-01 6.29543196e-02
5.91894022e-01 -5.32701131e-01 -6.04891329e-01
4.31057027e-01 -2.27513321e-01 8.73168855e-01
4.95605133e-01 -3.42206440e-01 -7.98294224e-01
3.90854911e-01 9.20452017e-01 -7.25475205e-04
2.36780672e-01 4.74615535e-01 8.47744912e-01
1.37116676e-01 9.03671526e-01 -4.05682756e-01
6.45465008e-01 2.78319477e-01 7.11273643e-01
4.59944990e-01 7.08887821e-01 5.34720872e-01
4.68942722e-01 -8.79651620e-01 7.94066473e-02
-6.53541377e-01 2.20192569e-01 7.24151814e-01
-2.15564879e-01 -8.57566087e-01 4.67022721e-01
8.99085493e-01 -3.93220545e-01 -1.92415409e-01
1.68769375e-02 -9.38268280e-01 3.45494354e-01
6.37918637e-01 1.48055431e-01 -7.55739761e-01
-2.67604783e-01 -5.71042406e-01 -7.76080872e-01
-8.25463729e-01 2.05934724e-01 5.25545723e-01
-1.37116676e-01 -9.03671526e-01 -4.05682757e-01
6.82007806e-01 -7.27270683e-01 7.70868398e-02
-6.47895454e-01 -3.88052505e-01 -6.55476542e-01
7.82314785e-01 6.18106914e-01 7.69876336e-02
-1.63828163e-01 -9.78231880e-01 -1.27370556e-01
6.97920790e-01 -6.35439522e-01 3.30335878e-01
-5.91894022e-01 5.32701131e-01 -6.04891329e-01
3.40709786e-01 7.76158009e-01 -5.30563683e-01
-2.36780672e-01 -4.74615535e-01 8.47744911e-01
-2.87145282e-02 -5.04441021e-01 -8.62970665e-01
-7.53633992e-01 6.31663822e-01 -1.81761900e-01
7.53633992e-01 -6.31663822e-01 -1.81761900e-01
9.14163231e-01 5.67859223e-02 4.01346801e-01
3.38516881e-01 -8.82066996e-01 -3.27666777e-01
8.84396886e-01 -2.17199997e-01 -4.13119898e-01
-4.21844476e-01 -2.67797628e-01 8.66214765e-01
-9.81789699e-01 -1.59131827e-01 -1.03761679e-01
4.21844476e-01 2.67797627e-01 8.66214765e-01
2.15564879e-01 8.57566087e-01 4.67022721e-01
1.68666300e-01 -1.99546342e-01 9.65261037e-01
4.91296027e-01 -8.06754973e-01 3.28288356e-01
-8.22746895e-01 -2.83776552e-01 4.92500092e-01
-5.09784593e-01 6.61419458e-01 5.50128759e-01
5.68699126e-01 2.72021908e-02 8.22093596e-01
-7.03698858e-01 4.52493511e-01 5.47772974e-01
-4.19957992e-01 -8.55918487e-01 3.01724307e-01
-9.14163231e-01 -5.67859224e-02 4.01346801e-01
6.10935763e-01 7.78176765e-01 -1.45598863e-01
7.74457458e-01 -4.76507163e-01 -4.16122965e-01
-5.94228049e-01 -7.96084084e-01 1.14641499e-01
-9.57193064e-01 2.85096116e-01 5.00143152e-02
1.27233007e-02 -4.04392317e-01 9.14495007e-01
-2.77230668e-01 6.69659503e-01 6.88982151e-01
6.47895454e-01 3.88052505e-01 -6.55476542e-01
3.64387408e-01 -5.67582970e-01 -7.38291609e-01
1.08945097e-01 7.48702020e-01 -6.53895257e-01
8.18581544e-01 2.28987033e-01 -5.26774538e-01
9.48068449e-01 2.41836505e-01 2.06592475e-01
2.02582372e-01 3.07518554e-01 -9.29729336e-01
4.19957992e-01 8.55918487e-01 3.01724307e-01
-1.28241318e-01 6.75200779e-01 -7.26402872e-01
1.63828163e-01 9.78231880e-01 -1.27370556e-01
-7.20769365e-01 2.90064828e-01 -6.29568559e-01
-8.97288171e-01 -3.37930355e-01 -2.84039099e-01
2.32870718e-01 6.90975490e-01 6.84339987e-01
-5.88308511e-01 9.99245196e-02 -8.02441005e-01
-1.43315815e-01 -3.56330369e-02 -9.89037427e-01
-8.34098514e-01 -4.67123183e-01 2.93384330e-01
1.28241318e-01 -6.75200779e-01 -7.26402872e-01
8.97288171e-01 3.37930355e-01 -2.84039099e-01
-8.99085493e-01 3.93220545e-01 -1.92415409e-01
3.32645691e-01 -1.58195127e-01 -9.29690843e-01
-9.15569010e-01 -4.02137418e-01 -4.34778312e-03
-7.42366699e-01 -5.04638667e-01 -4.40719136e-01
5.46195440e-01 -8.20943753e-01 -1.66501042e-01
-3.90854911e-01 -9.20452017e-01 -7.25475418e-04
-1.96995183e-02 6.27004095e-01 7.78764735e-01
-4.59944990e-01 -7.08887821e-01 5.34720872e-01
8.25463729e-01 -2.05934724e-01 5.25545723e-01
7.68813429e-01 3.93687174e-02 6.38258041e-01
-2.67752323e-01 8.37170466e-01 4.76919590e-01
-6.54709549e-01 -6.73316011e-01 3.43510564e-01
-1.98240643e-01 -9.63084415e-01 1.82121631e-01
7.42366699e-01 5.04638667e-01 -4.40719136e-01
-4.94870335e-01 -5.93667752e-01 -6.34558607e-01
2.19353658e-01 -4.07785796e-01 -8.86339919e-01
