-3.40211082e-01 -7.15368627e-01 6.10334132e-01
9.14937167e-02 -9.68952655e-01 -2.29694173e-01
6.44254712e-01 -4.34340952e-01 -6.29508209e-01
-7.67944548e-01 4.08244080e-01 -4.93555409e-01
-7.82418492e-01 -6.21858801e-01 3.33905059e-02
2.94619853e-01 -3.64111232e-01 -8.83526153e-01
-2.00229797e-01 8.58975763e-01 -4.71239224e-01
-5.25068050e-01 -4.75161962e-01 7.06065682e-01
-6.86457612e-01 -2.57194785e-01 6.80169736e-01
-3.68894501e-01 -1.70292948e-02 9.29317585e-01
-5.63021145e-01 -8.19424650e-01 1.07482621e-01
-7.45194134e-01 -4.49876062e-01 4.92240622e-01
8.63544245e-02 8.55479747e-01 -5.10582428e-01
9.58683578e-01 1.27464637e-01 -2.54314410e-01
-2.90411399e-01 -9.38830243e-01 1.85097329e-01
-4.55418040e-01 4.29352349e-01 -7.79902741e-01
7.21914105e-01 5.38173776e-01 4.34981667e-01
7.04866522e-01 -6.84739923e-01 1.85187862e-01
-4.37872904e-01 8.35495947e-01 3.31986729e-01
7.17653260e-01 -5.64994343e-01 -4.07127548e-01
-5.68607806e-01 8.09409817e-01 -1.46767178e-01
2.72716870e-01 9.40903104e-01 2.00814313e-01
-9.38583439e-01 -4.20012788e-02 -3.42486923e-01
-8.14620013e-01 1.01629026e-01 -5.71020848e-01
-6.24320251e-01 7.70211684e-01 1.30380618e-01
-6.56151700e-01 2.80616530e-01 -7.00512247e-01
4.59126545e-02 -8.76462012e-01 -4.79275640e-01
-1.91535882e-01 -8.71138228e-01 4.52144948e-01
-9.27661179e-01 3.72690966e-01 2.33993770e-02
2.80221348e-01 1.50975435e-01 -9.47986315e-01
9.58278609e-01 2.85822135e-01 -2.43596218e-03
4.31810058e-01 -5.53306296e-01 7.12316487e-01
2.33684027e-01 -7.32554677e-01 -6.39338030e-01
2.86211853e-01 6.82995923e-01 6.72012603e-01
9.04827238e-02 3.22779861e-01 9.42140829e-01
-9.06644437e-01 -3.00260652e-01 -2.96378181e-01
6.30523518e-01 7.75828841e-01 -2.29756274e-02
-9.04754894e-01 2.25469894e-01 -3.61361066e-01
-2.24453044e-01 5.49464424e-01 -8.04802088e-01
7.27530796e-01 1.06978516e-01 6.77684216e-01
2.98669921e-01 -1.08711483e-01 -9.48142352e-01
3.07231847e-01 -8.57636737e-01 -4.12391070e-01
7.13420153e-01 1.18488257e-01 -6.90643301e-01
-1.20131803e-01 -9.92526655e-01 -2.14512262e-02
-2.11366905e-01 8.35479881e-01 5.07246544e-01
-8.15123527e-01 -1.68088277e-01 -5.54363868e-01
-3.28227522e-02 9.58262152e-01 -2.83997232e-01
9.99834548e-01 9.75010157e-03 -1.52985323e-02
-4.01076210e-01 2.43689069e-01 8.83038778e-01
8.80029335e-01 -4.17683861e-01 -2.26023292e-01
5.33313486e-01 -6.47452273e-03 8.45894354e-01
5.22516698e-01 7.15591676e-01 4.63578680e-01
-1.99018112e-01 -2.11686613e-01 -9.56858033e-01
1.26733871e-01 -5.55710554e-01 -8.21657659e-01
8.39873278e-01 -2.61066719e-01 4.75875748e-01
7.08954657e-01 -1.55439693e-01 6.87912387e-01
7.14452610e-01 6.67339156e-01 2.10273558e-01
3.13752407e-01 -1.32717079e-01 9.40185572e-01
4.02342389e-01 9.14431715e-01 -4.39727658e-02
-5.61203563e-01 -5.03434964e-01 -6.56964669e-01
-2.82588027e-01 -5.30748093e-01 7.99033521e-01
-5.96036308e-01 -1.07471650e-02 8.02888175e-01
-2.18496280e-01 5.45630435e-02 -9.74309352e-01
-6.30787709e-01 -7.62085473e-01 -1.46060742e-01
8.74818655e-01 4.29530053e-01 2.24043055e-01
-5.79486478e-01 5.66928346e-01 -5.85479165e-01
-2.11590536e-01 -3.15441104e-01 9.25057106e-01
4.40618180e-01 5.47562459e-01 -7.11355705e-01
-4.05655291e-01 9.12692099e-01 4.93662204e-02
3.44769824e-01 7.74291870e-01 -5.30662341e-01
4.13873958e-01 -5.41871282e-01 -7.31492121e-01
-4.32411857e-01 -8.44770073e-01 -3.15251827e-01
-8.08702941e-01 5.60736289e-01 1.77696275e-01
-1.75023340e-01 -9.43892681e-01 -2.80059690e-01
8.72182105e-01 -3.10360539e-02 -4.88192330e-01
3.98237309e-02 7.75452363e-01 6.30150355e-01
-1.48595739e-01 1.88291348e-01 9.70808742e-01
2.29163917e-01 -9.16713394e-01 3.27295192e-01
6.90056127e-01 3.63923269e-01 6.25606420e-01
7.21234402e-01 -1.54345301e-01 -6.75273794e-01
-9.23746625e-01 -3.82487315e-01 -1.99359639e-02
-3.24475716e-01 9.16969503e-01 -2.32123437e-01
9.03342247e-01 -3.60193081e-01 2.32880713e-01
-7.85872767e-01 4.55549591e-01 4.18187956e-01
-6.18793115e-01 4.82803914e-01 6.19676170e-01
9.60665227e-01 1.54946590e-01 2.30462633e-01
3.57071201e-02 9.13373646e-01 4.05554375e-01
-7.60593619e-01 -4.20652187e-01 -4.94518730e-01
8.45525761e-01 2.32557752e-01 -4.80624116e-01
-6.50342123e-01 -6.48615132e-01 -3.95415760e-01
2.89676492e-01 8.42381321e-01 4.54402719e-01
5.00274173e-01 -2.90860304e-01 8.15554207e-01
6.59227954e-01 -4.17243181e-01 6.25562426e-01
7.42541695e-01 -6.52184309e-01 -1.52598000e-01
9.53999508e-01 -1.48464562e-01 -2.60462448e-01
5.24514800e-01 -2.66415430e-01 -8.08642799e-01
7.63549498e-01 -5.21182165e-01 3.81263655e-01
3.49425375e-01 -9.23690264e-01 -1.57155263e-01
-4.77329088e-01 7.78403080e-01 -4.07730447e-01
8.28876551e-01 -3.06942849e-01 -4.67703700e-01
5.72290586e-01 6.51107426e-01 -4.98536962e-01
3.10208185e-01 4.46658668e-01 8.39207563e-01
4.95071776e-01 2.68828367e-01 -8.26214804e-01
-6.24041334e-01 2.45344101e-01 7.41877669e-01
1.35154512e-01 -9.89914663e-01 4.24617649e-02
5.23189991e-01 2.73994960e-01 8.06970304e-01
-8.67179656e-01 4.45539525e-01 -2.22472888e-01
5.49486661e-01 -7.83771500e-01 -2.89422241e-01
-2.74065495e-02 -9.65053707e-01 2.60618737e-01
-6.98867702e-01 -6.58091851e-01 2.80181919e-01
-4.42987103e-01 -1.09502659e-01 -8.89813977e-01
2.34571672e-02 9.87945281e-01 1.53015051e-01
5.72004772e-01 -6.50009265e-01 5.00299971e-01
-9.24141973e-01 3.04471633e-02 3.80838071e-01
-1.24117833e-01 -4.71051117e-01 -8.73328553e-01
-4.39715059e-02 -7.15141234e-01 -6.97594038e-01
-4.46096228e-01 -7.10944776e-01 -5.43649603e-01
-8.67282680e-01 -2.24051689e-01 4.44550354e-01
-4.58748152e-01 1.65867146e-01 -8.72946391e-01
2.67676089e-01 4.13442555e-01 -8.70293347e-01
-6.95455623e-01 6.33973895e-01 -3.38257117e-01
2.59159063e-01 9.15963609e-01 -3.06341005e-01
9.65694378e-01 -2.59301709e-01 -1.39827516e-02
8.90074900e-01 3.93847813e-01 -2.29451121e-01
1.94369267e-01 6.62319086e-01 -7.23567726e-01
5.05829208e-01 8.14630727e-01 -2.83744451e-01
-3.93104269e-01 -3.76053428e-01 -8.39077182e-01
-3.84796866e-01 -9.20390566e-01 -6.93811314e-02
1.04709313e-01 4.24873619e-02 9.93596753e-01
5.06173904e-01 5.43593872e-01 6.69548364e-01
-9.63368541e-01 -1.91029175e-01 1.88232445e-01
2.20645163e-02 5.00081993e-01 -8.65694671e-01
-8.75823212e-02 -7.11408443e-01 6.97302576e-01
-1.27191034e-01 -7.91729566e-02 9.88715472e-01
-5.70652793e-01 -6.43376376e-01 5.10319282e-01
-6.31243413e-01 -2.61625624e-01 -7.30124776e-01
8.78225783e-01 1.21364447e-03 4.78245131e-01
-6.32806368e-01 6.68742954e-01 3.90308869e-01
6.60332739e-02 -8.46775973e-01 5.27837816e-01
6.50902677e-01 3.85947982e-01 -6.53732236e-01
5.01306230e-01 -6.83331267e-01 -5.30799465e-01
2.62265899e-01 -4.18036864e-01 8.69750042e-01
1.44845359e-01 9.86345888e-01 -7.83595194e-02
7.59997852e-01 4.80103064e-01 -4.38064923e-01
-2.16120656e-01 9.43967360e-01 2.49435434e-01
-7.67383897e-01 6.37400605e-01 -6.95910025e-02
9.64980994e-01 -1.06976379e-01 2.39514379e-01
-7.87248885e-03 -5.02054938e-01 8.64802134e-01
1.77950902e-01 -6.57985215e-01 7.31704921e-01
3.32532579e-01 -7.72474620e-01 5.41024291e-01
8.54012964e-01 2.68465830e-01 4.45632182e-01
-7.85454053e-01 -1.72077267e-02 6.18683784e-01
3.78847301e-01 -9.19207951e-01 1.07387297e-01
5.63687353e-02 -2.83862389e-01 -9.57204818e-01
-8.64583876e-01 -4.39863435e-01 2.42935558e-01
-6.50638189e-02 7.27494342e-01 -6.83019374e-01
2.91151173e-02 2.48314781e-01 -9.68239630e-01
-4.60002746e-01 -2.59866097e-01 8.49041490e-01
7.31876618e-02 -2.55585584e-01 9.64014258e-01
3.24200258e-01 1.64505214e-01 9.31576743e-01
-6.53829493e-01 2.56383937e-03 -7.56636327e-01
5.27680361e-01 1.53490837e-03 -8.49439120e-01
8.32314157e-01 5.54158675e-01 -1.26242229e-02
7.20979149e-01 6.50275153e-01 -2.39433842e-01
5.01793301e-01 -8.08419234e-01 3.07673336e-01
-1.92296325e-01 6.61789352e-01 7.24609972e-01
-2.25957960e-01 3.12769733e-01 -9.22558700e-01
-9.88394984e-01 -1.26520493e-01 -8.40795598e-02
-2.93775040e-01 -6.13434687e-01 -7.33070411e-01
-3.49764336e-01 6.95254296e-01 -6.27920287e-01
-8.05227391e-01 2.31090148e-01 5.46085639e-01
5.05224602e-01 8.33373049e-01 2.24135635e-01
-2.13162416e-01 -8.27520210e-01 -5.19394934e-01
-1.64155987e-01 4.38585889e-01 8.83571523e-01
-9.19690454e-01 2.82866287e-01 2.72320642e-01
-8.12794927e-01 -5.38850271e-01 -2.21372434e-01
-1.56540697e-01 9.86806324e-01 -4.13225095e-02
3.93962786e-02 -1.83505747e-02 -9.99053142e-01
-4.31680348e-01 6.89967626e-01 5.81032873e-01
-4.07222267e-01 4.85187206e-01 7.73800196e-01
-4.50375731e-01 -8.19672976e-01 3.53978503e-01
6.62497895e-02 5.73751056e-01 8.16347551e-01
5.84384352e-01 -8.11396335e-01 -1.14268068e-02
-9.80127177e-01 1.53801900e-01 -1.25286588e-01
-9.90191822e-01 7.20887931e-02 1.19688992e-01
8.52840621e-01 -5.20741259e-01 3.86078384e-02
