5.00888454e-01 -2.29214578e-02 8.65208278e-01
-2.03497061e-01 1.60539670e-01 9.65823980e-01
8.15453646e-01 -5.74893390e-01 -6.73271242e-02
-2.62718129e-01 5.76477177e-01 -7.73726857e-01
-4.82995194e-01 1.34648724e-01 -8.65208278e-01
-9.71152945e-01 2.13511680e-01 1.06182483e-01
-2.49248249e-01 7.11291040e-02 -9.65823980e-01
1.24548318e-01 9.51233048e-01 2.82211632e-01
5.24537665e-11 -9.10893576e-11 -1.00000000e+00
-4.91236626e-01 6.05914177e-01 -6.25743229e-01
8.04228952e-01 2.05667641e-01 5.57598972e-01
9.43163936e-01 1.75494688e-01 2.82211632e-01
1.59837431e-01 -2.04049099e-01 -9.65823980e-01
-5.29746484e-01 -6.39102534e-01 5.57598972e-01
-9.49318147e-01 -2.50265770e-01 -1.90163349e-01
9.89259778e-01 -1.00450841e-01 -1.06182483e-01
2.37967803e-01 3.55323658e-01 -9.03944923e-01
-8.09099756e-01 1.16620307e-02 -5.87555599e-01
2.99611115e-01 8.38562213e-01 4.55023730e-01
-6.99777707e-01 4.46536166e-01 -5.57598972e-01
3.03664684e-01 -7.72574363e-01 -5.57598972e-01
9.87956424e-01 1.54732361e-01 8.14708903e-12
-5.74426282e-01 4.30556311e-01 6.96172184e-01
9.83846548e-01 -6.25808176e-02 1.67718843e-01
1.69989962e-01 -6.08510592e-01 -7.75124682e-01
-5.31372332e-01 8.25518834e-01 -1.90163349e-01
-8.76268689e-02 -8.96199164e-01 -4.34912164e-01
6.20911985e-01 7.60464468e-01 -1.90163349e-01
8.23682734e-01 -5.34214053e-01 1.90163349e-01
-6.59882463e-01 -6.96356037e-01 2.82211632e-01
6.31257751e-01 -2.63700537e-02 -7.75124682e-01
6.37360498e-01 -6.74066709e-01 3.73370683e-01
-5.30528149e-01 -8.30909304e-01 -1.67718843e-01
8.25257863e-01 -3.60278877e-01 -4.34912164e-01
-9.97629714e-01 -1.42131050e-02 -6.73271243e-02
-5.03164439e-01 -8.57642599e-01 1.06182483e-01
1.76582646e-01 4.69290108e-01 8.65208278e-01
-6.21233244e-01 -1.24161216e-01 7.73726857e-01
6.55890439e-01 4.22200360e-01 6.25743228e-01
9.19545489e-01 -1.22598639e-01 -3.73370682e-01
2.31975901e-01 6.79361076e-01 6.96172184e-01
-4.44120311e-01 -8.14463924e-01 3.73370683e-01
-5.04835019e-01 -7.33549595e-01 -4.55023730e-01
-2.77312270e-01 -4.17746982e-01 -8.65208278e-01
-7.35284985e-01 -5.02304086e-01 4.55023730e-01
-5.53385490e-02 -9.80191586e-01 -1.90163349e-01
1.58136105e-01 9.87417324e-01 -1.24648997e-10
7.84524489e-01 5.27072566e-01 -3.26673898e-01
2.11645975e-01 -6.85966669e-01 6.96172184e-01
-7.08324137e-01 -7.05887326e-01 5.64669756e-11
3.35208727e-01 -2.65553547e-01 9.03944923e-01
5.29188639e-02 8.28421982e-01 5.57598972e-01
6.61430222e-01 4.66142123e-01 -5.87555599e-01
5.92968156e-01 2.18106612e-01 7.75124682e-01
-3.57432761e-01 8.26494544e-01 4.34912164e-01
-9.70410895e-02 9.89600074e-01 1.06182483e-01
9.11178253e-01 3.98094801e-01 1.06182483e-01
-4.27278015e-01 1.78065865e-02 9.03944922e-01
-2.82463367e-01 -7.27089993e-01 6.25743229e-01
-3.52370188e-01 9.16336811e-01 1.90163349e-01
-8.79414246e-01 -1.93602667e-01 -4.34912164e-01
5.51388214e-01 -3.11957992e-01 -7.73726857e-01
-6.29446742e-01 -7.17185437e-02 -7.73726857e-01
-7.38872966e-02 -6.29195850e-01 7.73726857e-01
-2.15566349e-01 -1.43927720e-01 9.65823980e-01
-7.04935131e-01 5.44077078e-01 4.55023730e-01
4.09412187e-01 -8.67604896e-01 -2.82211632e-01
5.41644522e-01 -7.06805925e-01 -4.55023730e-01
4.00753418e-01 8.36654667e-01 -3.73370683e-01
6.47720683e-01 -4.85011685e-01 -5.87555599e-01
-8.66188842e-01 4.12399667e-01 2.82211632e-01
4.69895854e-01 1.74964346e-01 -8.65208278e-01
1.63340091e-02 -4.27336843e-01 -9.03944923e-01
-4.95198320e-01 3.92377818e-01 -7.75124682e-01
-6.85233229e-01 2.14008674e-01 -6.96172184e-01
-9.80376472e-01 -5.19603162e-02 1.90163349e-01
4.24458161e-01 6.54431572e-01 -6.25743229e-01
3.14661532e-02 -9.44613173e-01 3.26673898e-01
-1.44669743e-01 -2.15069070e-01 -9.65823980e-01
7.17795274e-01 -1.06880747e-02 6.96172184e-01
7.62599719e-01 6.18287611e-01 1.90163349e-01
-1.15101098e-01 4.11868079e-01 9.03944923e-01
-1.19429004e-01 9.19962525e-01 3.73370682e-01
2.10163657e-01 -9.71882975e-01 -1.06182483e-01
2.44507409e-01 -9.55032207e-01 1.67718844e-01
4.52454545e-01 -8.91787466e-01 1.39792433e-10
-8.59371495e-01 -5.00205871e-01 -1.06182483e-01
2.58995431e-01 -1.02667494e-02 9.65823980e-01
-5.86990868e-01 -4.13262642e-01 6.96172184e-01
3.90668952e-01 -4.96547579e-01 7.75124682e-01
-8.21436866e-03 7.17827845e-01 -6.96172184e-01
-8.32732659e-01 -5.27661547e-01 1.67718843e-01
7.53566196e-01 -2.01453222e-01 -6.25743228e-01
-7.59164496e-01 6.28919437e-01 1.67718843e-01
-6.40924334e-01 -5.27540884e-01 -5.57598972e-01
-4.18700166e-01 -2.75870997e-01 8.65208278e-01
6.60180220e-01 -7.43563957e-01 1.06182483e-01
4.44121963e-01 -7.01312390e-01 5.57598972e-01
-1.48971238e-01 -4.00863003e-01 9.03944923e-01
-8.96495819e-01 -8.45378964e-02 4.34912164e-01
4.12713611e-02 -7.78936510e-01 -6.25743228e-01
6.80156470e-01 2.29633332e-01 -6.96172184e-01
8.90104983e-01 -2.58171283e-02 4.55023731e-01
-7.28059092e-01 -2.79956016e-01 -6.25743228e-01
4.29608120e-01 4.65600273e-01 7.73726857e-01
7.74970482e-01 -4.58554426e-01 4.34912164e-01
6.00639736e-01 7.96679965e-01 6.73271242e-02
-3.91754376e-01 3.12958695e-01 8.65208278e-01
6.26299494e-01 -7.61327349e-01 -1.67718843e-01
8.28599430e-01 5.00636690e-02 -5.57598972e-01
3.11606786e-01 -3.92830558e-01 -8.65208278e-01
8.87366830e-03 -8.09135141e-01 5.87555599e-01
-4.55881025e-01 7.76546135e-01 -4.34912164e-01
4.01232510e-01 9.09800942e-01 -1.06182483e-01
4.68418754e-01 6.59819891e-01 5.87555599e-01
-3.10055963e-01 5.52459999e-01 7.73726857e-01
-9.54183923e-01 2.47797158e-01 -1.67718843e-01
1.32983443e-01 -4.83456348e-01 8.65208278e-01
2.43454708e-01 8.89597910e-02 -9.65823980e-01
-9.44499126e-01 3.47212613e-02 -3.26673898e-01
-7.66791134e-01 -2.58475869e-01 5.87555599e-01
5.75568383e-01 -2.64703205e-01 7.73726857e-01
7.98745139e-01 5.97890677e-01 -6.73271243e-02
8.39589743e-01 2.96719510e-01 -4.55023730e-01
3.63543198e-01 9.16355135e-01 1.67718843e-01
-2.61116825e-01 -7.65895830e-01 -5.87555599e-01
-5.80686345e-01 7.45712769e-01 3.26673897e-01
-4.82776651e-01 6.49388268e-01 5.87555599e-01
4.67078009e-01 4.28001033e-01 -7.73726857e-01
9.43295558e-01 -3.25054686e-01 6.73271243e-02
-9.11841945e-01 1.70700322e-01 3.73370682e-01
5.97664278e-01 6.73534573e-01 -4.34912164e-01
-2.58844399e-01 9.09001508e-01 -3.26673898e-01
7.43707199e-01 -5.83252747e-01 -3.26673897e-01
-2.94767070e-01 -9.53194331e-01 -6.73271242e-02
-4.91468104e-11 8.61652063e-11 1.00000000e+00
-2.53535793e-01 -9.48450053e-01 1.90163349e-01
3.56141625e-01 2.36741885e-01 9.03944923e-01
-2.38934324e-01 7.73103361e-01 -5.87555599e-01
5.29773039e-01 7.82703451e-01 3.26673897e-01
-2.41944772e-02 6.31344878e-01 7.75124682e-01
2.08437927e-01 8.03515412e-01 -5.57598972e-01
1.78743946e-01 9.42553551e-01 -2.82211632e-01
-3.21802002e-01 9.44410149e-01 -6.73271244e-02
4.11468975e-01 -1.16519781e-01 -9.03944923e-01
-5.91899462e-02 9.84056370e-01 -1.67718844e-01
1.67556949e-01 -9.12424793e-01 -3.73370682e-01
6.04217695e-01 -4.93321790e-01 6.25743228e-01
-1.98855111e-01 7.54255963e-01 6.25743228e-01
2.50504018e-01 -8.54518076e-01 4.55023730e-01
-6.71866256e-01 6.39679660e-01 -3.73370683e-01
-6.07921165e-01 1.72085981e-01 7.75124682e-01
8.38030762e-01 3.97867786e-01 3.73370682e-01
-7.78789657e-01 4.39554616e-02 6.25743228e-01
-1.76510194e-02 -9.97574809e-01 6.73271243e-02
-4.15283057e-01 -5.85563210e-01 -6.96172184e-01
-9.37414693e-03 2.59029274e-01 -9.65823980e-01
-7.71523296e-01 3.06325301e-01 5.57598972e-01
-3.24888163e-01 -8.87542588e-01 -3.26673897e-01
-5.72079786e-01 8.17429983e-01 6.73271241e-02
-8.53649723e-01 2.53447343e-01 -4.55023730e-01
-2.64396785e-01 3.36121878e-01 -9.03944923e-01
4.58359051e-01 -8.42771366e-01 2.82211632e-01
9.17602524e-01 3.60383126e-01 -1.67718843e-01
-2.27495243e-02 8.90188668e-01 -4.55023731e-01
7.02697305e-02 -2.49491892e-01 9.65823980e-01
-8.15989600e-01 -4.41310895e-01 -3.73370682e-01
-6.98625967e-01 -6.57478785e-01 -2.82211632e-01
2.20148784e-01 5.92213003e-01 -7.75124682e-01
9.51656614e-01 1.21269471e-01 -2.82211632e-01
-5.26198177e-01 -3.49710175e-01 -7.75124682e-01
-2.11951764e-02 5.00964470e-01 -8.65208278e-01
4.28574185e-01 -5.75906641e-01 -6.96172184e-01
-1.96632126e-01 -8.78741837e-01 4.34912164e-01
-8.90222937e-01 4.55525107e-01 -6.27602822e-11
-3.51521465e-01 -5.24989893e-01 7.75124682e-01
-8.41186780e-01 4.61260660e-01 -2.82211632e-01
-1.26301352e-01 -6.20801675e-01 -7.73726857e-01
-7.41284450e-01 6.62738746e-01 -1.06182483e-01
-9.54204488e-01 -2.91480452e-01 6.73271243e-02
6.75590224e-01 5.95339616e-01 4.34912164e-01
-4.01374002e-01 -1.47588913e-01 -9.03944923e-01
-8.88656937e-01 -3.21827613e-01 3.26673898e-01
7.72275362e-01 -2.41597149e-01 5.87555599e-01
8.97982485e-02 2.43146692e-01 9.65823980e-01
9.08104089e-01 -2.61975433e-01 3.26673898e-01
9.15117043e-01 -3.55525945e-01 -1.90163349e-01
