3.91781460e-01 9.13127004e-01 1.12722606e-01
-8.89422746e-01 -4.09615372e-01 -2.02835848e-01
6.02914017e-01 -3.00147089e-01 -7.39192973e-01
-8.36571318e-01 4.45343159e-01 -3.19089064e-01
1.57728873e-01 9.86919204e-01 3.33480787e-02
-2.74958692e-01 5.54871336e-01 7.85185131e-01
-4.11888083e-01 -5.62227068e-01 -7.17111410e-01
4.11888082e-01 5.62227068e-01 -7.17111410e-01
-8.34702185e-03 7.11459352e-01 -7.02677567e-01
-7.31308517e-01 -1.98854490e-01 -6.52414440e-01
-8.60394252e-01 -1.30434662e-02 -5.09461959e-01
6.01061372e-01 7.99108823e-01 1.22604417e-02
1.98876461e-01 -3.35955506e-01 9.20642305e-01
3.70400950e-01 9.16554917e-01 -1.50765337e-01
-3.66447162e-01 1.43212400e-01 9.19351341e-01
-9.73795279e-01 -2.23129739e-01 -4.39984651e-02
-3.91781460e-01 -9.13127004e-01 1.12722607e-01
2.74958692e-01 -5.54871336e-01 7.85185132e-01
-1.65383494e-01 -5.38635912e-01 -8.26147368e-01
-5.73048260e-01 -7.78031358e-01 -2.57454542e-01
5.45810245e-01 3.45757169e-01 -7.63245039e-01
2.89473494e-01 1.56859221e-01 9.44245989e-01
-8.63466024e-01 4.79022573e-01 1.57999473e-01
5.13264377e-01 6.03711363e-02 8.56104663e-01
6.88664896e-01 -5.42787973e-02 -7.23045168e-01
-8.41822057e-01 -3.11342113e-01 -4.40909986e-01
-7.35196172e-01 -5.81163693e-01 -3.48905825e-01
3.51220315e-01 -9.33435168e-01 -7.30962500e-02
9.60481244e-01 -2.33420236e-01 1.51627196e-01
4.59383303e-01 5.50891669e-01 6.96767897e-01
5.12179241e-01 1.05579856e-01 -8.52364436e-01
5.32704880e-01 7.90348930e-01 3.02612202e-01
-6.86487995e-01 5.00856250e-01 -5.27140526e-01
8.63466025e-01 -4.79022573e-01 1.57999473e-01
2.43897449e-02 9.65182788e-01 2.60436907e-01
-6.99514252e-02 7.14486435e-01 6.96143725e-01
-9.31629364e-01 3.52431624e-01 -8.86490748e-02
9.91758995e-01 2.56977868e-02 1.25513933e-01
-6.01061372e-01 -7.99108823e-01 1.22604427e-02
8.68617802e-01 -2.98001711e-01 3.95851210e-01
7.06035980e-01 1.26414453e-01 6.96801789e-01
8.03696889e-01 -9.91499397e-02 5.86720315e-01
3.88475302e-01 7.50294485e-01 5.34925455e-01
-7.71022902e-01 -6.30772883e-01 -8.74599064e-02
-5.68840965e-01 7.19442335e-01 3.98525746e-01
-5.01925978e-01 -3.16703456e-01 8.04841233e-01
-2.65708723e-01 -9.03253429e-01 3.36945383e-01
3.29984400e-01 -7.31284976e-01 5.96936103e-01
-7.16753484e-02 -2.75917195e-01 -9.58505157e-01
4.87907539e-01 -5.27399219e-01 -6.95554559e-01
2.62049366e-01 6.60445371e-02 -9.62791794e-01
-2.22790005e-01 8.19145749e-01 -5.28549656e-01
1.26748574e-01 8.28825471e-01 5.44961702e-01
4.27406420e-01 -8.50214900e-01 -3.07340705e-01
6.85405310e-01 3.89627906e-01 6.15150219e-01
7.71022902e-01 6.30772883e-01 -8.74599075e-02
-2.59549790e-01 -4.20501398e-01 8.69374874e-01
2.65708723e-01 9.03253429e-01 3.36945382e-01
7.45293413e-01 -5.33446865e-01 3.99965322e-01
-3.88475302e-01 -7.50294485e-01 5.34925456e-01
-8.03696889e-01 9.91499401e-02 5.86720316e-01
-1.80936634e-01 2.00231472e-01 -9.62896194e-01
6.19784856e-01 -1.62519459e-01 7.67759290e-01
9.73795279e-01 2.23129739e-01 -4.39984661e-02
7.16753476e-02 2.75917194e-01 -9.58505157e-01
-6.19784855e-01 1.62519459e-01 7.67759290e-01
-5.13264376e-01 -6.03711357e-02 8.56104663e-01
5.01925979e-01 3.16703456e-01 8.04841232e-01
3.17681687e-01 3.26856143e-01 -8.90080453e-01
-7.05018839e-01 6.91805479e-01 1.56056561e-01
-2.89473494e-01 -1.56859220e-01 9.44245990e-01
2.59549791e-01 4.20501398e-01 8.69374874e-01
1.05439758e-03 5.09807285e-01 8.60288096e-01
-2.05020071e-01 -6.48848986e-01 7.32776859e-01
6.02167646e-01 -7.92913503e-01 -9.31787655e-02
7.35196172e-01 5.81163692e-01 -3.48905826e-01
7.94670620e-01 -2.55550430e-01 -5.50629151e-01
9.36059536e-01 2.51862685e-01 2.45678220e-01
-3.19230034e-01 -8.58341244e-01 -4.01674503e-01
-1.26748573e-01 -8.28825471e-01 5.44961703e-01
1.80936633e-01 -2.00231473e-01 -9.62896194e-01
8.48338037e-01 1.96822778e-01 4.91511421e-01
4.25597044e-02 8.73534847e-01 -4.84897346e-01
-8.56671423e-02 9.95033108e-01 -5.06975641e-02
2.44122960e-01 7.40927437e-01 -6.25643970e-01
-2.54834584e-01 6.39252883e-01 -7.25544572e-01
9.31629364e-01 -3.52431624e-01 -8.86490754e-02
-4.92159127e-02 -2.51540133e-01 9.66594831e-01
8.36571318e-01 -4.45343159e-01 -3.19089064e-01
9.90763978e-01 -8.23794712e-02 -1.07704865e-01
-3.17681688e-01 -3.26856144e-01 -8.90080452e-01
-7.03446063e-01 3.63702127e-01 6.10642721e-01
3.35545932e-01 -3.88610163e-01 -8.58132205e-01
-8.11321891e-01 -4.51795184e-01 3.70995932e-01
5.73048260e-01 7.78031358e-01 -2.57454542e-01
9.24783699e-01 -1.86060357e-01 -3.31898450e-01
-1.98876460e-01 3.35955507e-01 9.20642305e-01
-4.87907540e-01 5.27399218e-01 -6.95554559e-01
-9.24783699e-01 1.86060357e-01 -3.31898449e-01
-5.45810245e-01 -3.45757170e-01 -7.63245038e-01
4.95301283e-01 -8.56725358e-01 1.43869145e-01
-5.12179242e-01 -1.05579856e-01 -8.52364436e-01
3.19230034e-01 8.58341243e-01 -4.01674504e-01
8.89422746e-01 4.09615372e-01 -2.02835849e-01
-2.20834940e-01 9.60161381e-01 1.71236938e-01
-2.44122960e-01 -7.40927437e-01 -6.25643969e-01
-9.90763979e-01 8.23794710e-02 -1.07704865e-01
8.55618213e-02 -4.78153927e-01 -8.74098281e-01
-5.32704880e-01 -7.90348930e-01 3.02612203e-01
-4.42326820e-01 1.41698519e-01 -8.85589250e-01
8.11321892e-01 4.51795184e-01 3.70995931e-01
4.68283714e-01 -3.76277689e-01 7.99453338e-01
-3.70400950e-01 -9.16554917e-01 -1.50765336e-01
6.65060181e-01 4.78635896e-01 -5.73238614e-01
5.68840966e-01 -7.19442335e-01 3.98525746e-01
-4.68283713e-01 3.76277689e-01 7.99453338e-01
6.26689948e-01 6.14588007e-01 4.79104785e-01
-7.35004059e-01 -6.47338290e-01 2.01797462e-01
6.64385116e-01 -6.74778876e-01 -3.21349989e-01
-6.65060182e-01 -4.78635896e-01 -5.73238613e-01
-6.02914018e-01 3.00147088e-01 -7.39192972e-01
-1.57728873e-01 -9.86919204e-01 3.33480795e-02
-5.11416554e-01 -6.95845522e-01 -5.04234079e-01
-3.54227531e-01 8.59514984e-01 3.68452071e-01
-6.64385116e-01 6.74778876e-01 -3.21349989e-01
-8.68617802e-01 2.98001711e-01 3.95851211e-01
7.97953429e-01 -5.96238843e-01 -8.81450453e-02
-3.84033057e-10 -3.37816193e-10 -9.99999890e-01
-9.91758995e-01 -2.56977868e-02 1.25513933e-01
-1.05439681e-03 -5.09807285e-01 8.60288097e-01
1.12620210e-01 9.63366806e-01 -2.43394809e-01
8.56671422e-02 -9.95033108e-01 -5.06975635e-02
-7.06035980e-01 -1.26414453e-01 6.96801790e-01
-1.15351938e-01 8.76480535e-01 4.67414062e-01
6.86487994e-01 -5.00856251e-01 -5.27140526e-01
-4.95301283e-01 8.56725358e-01 1.43869144e-01
5.37574152e-01 -5.68849278e-01 6.22434468e-01
9.28413742e-01 -2.97472770e-02 3.70355376e-01
8.60394251e-01 1.30434658e-02 -5.09461960e-01
-4.59383303e-01 -5.50891669e-01 6.96767898e-01
2.20834940e-01 -9.60161381e-01 1.71236939e-01
-3.29984399e-01 7.31284976e-01 5.96936103e-01
-2.62049366e-01 -6.60445378e-02 -9.62791793e-01
-6.02167646e-01 7.92913503e-01 -9.31787655e-02
-4.25597048e-02 -8.73534847e-01 -4.84897346e-01
9.50807946e-01 1.17616367e-01 -2.86584328e-01
-6.26689948e-01 -6.14588007e-01 4.79104786e-01
4.92159135e-02 2.51540134e-01 9.66594831e-01
-4.73048107e-01 7.12876001e-01 -5.17719212e-01
3.54227532e-01 -8.59514984e-01 3.68452071e-01
1.15351939e-01 -8.76480534e-01 4.67414063e-01
-1.23461159e-01 4.78252748e-02 9.91196400e-01
-9.60481244e-01 2.33420237e-01 1.51627197e-01
1.65383493e-01 5.38635911e-01 -8.26147368e-01
3.66447162e-01 -1.43212399e-01 9.19351341e-01
-3.35545932e-01 3.88610162e-01 -8.58132205e-01
-9.50807946e-01 -1.17616368e-01 -2.86584327e-01
-7.45293413e-01 5.33446865e-01 3.99965322e-01
-7.97953429e-01 5.96238842e-01 -8.81450450e-02
8.85775189e-01 4.56696825e-01 8.26458937e-02
-8.48338036e-01 -1.96822777e-01 4.91511422e-01
4.73048106e-01 -7.12876001e-01 -5.17719212e-01
-8.55618221e-02 4.78153926e-01 -8.74098282e-01
-8.85775189e-01 -4.56696825e-01 8.26458947e-02
-2.43897446e-02 -9.65182788e-01 2.60436907e-01
-3.51220315e-01 9.33435168e-01 -7.30962503e-02
-1.64995508e-01 9.39502262e-01 -3.00186469e-01
1.64995508e-01 -9.39502262e-01 -3.00186469e-01
7.35004059e-01 6.47338291e-01 2.01797461e-01
4.42326819e-01 -1.41698519e-01 -8.85589250e-01
-9.28413742e-01 2.97472773e-02 3.70355377e-01
6.99514257e-02 -7.14486434e-01 6.96143725e-01
7.03446064e-01 -3.63702126e-01 6.10642721e-01
8.41822057e-01 3.11342113e-01 -4.40909987e-01
-4.27406420e-01 8.50214899e-01 -3.07340705e-01
1.23461160e-01 -4.78252742e-02 9.91196400e-01
-6.85405309e-01 -3.89627906e-01 6.15150219e-01
-5.37574151e-01 5.68849279e-01 6.22434468e-01
2.22790005e-01 -8.19145750e-01 -5.28549656e-01
7.31308516e-01 1.98854490e-01 -6.52414441e-01
2.05020072e-01 6.48848986e-01 7.32776858e-01
-1.12620210e-01 -9.63366806e-01 -2.43394808e-01
8.34702123e-03 -7.11459353e-01 -7.02677566e-01
7.05018839e-01 -6.91805479e-01 1.56056561e-01
-9.36059535e-01 -2.51862685e-01 2.45678221e-01
-6.88664897e-01 5.42787968e-02 -7.23045167e-01
5.11416553e-01 6.95845522e-01 -5.04234080e-01
-7.94670621e-01 2.55550430e-01 -5.50629151e-01
2.54834584e-01 -6.39252884e-01 -7.25544572e-01
