5.74037751e-01 2.51165919e-01 7.79356364e-01
-9.40929973e-01 -6.66064553e-02 -3.31985492e-01
-4.12617744e-01 -9.08107152e-01 7.13302026e-02
1.96381398e-01 3.73975718e-01 -9.06408577e-01
-3.14158799e-01 -7.38299033e-01 5.96840671e-01
4.16260404e-01 -4.68327806e-01 7.79356364e-01
-5.27644251e-01 7.22212950e-01 -4.47213595e-01
4.16357233e-01 -7.12049564e-02 -9.06408577e-01
-1.99957224e-01 9.77204743e-01 7.13302026e-02
7.32582697e-01 6.76930272e-01 -7.13302025e-02
-3.54109855e-01 8.74295055e-01 -3.31985491e-01
5.24862826e-01 8.49753233e-01 4.93807334e-02
7.95223106e-01 -3.83002456e-01 4.70031201e-01
-4.87795259e-01 -8.39274134e-02 8.68914250e-01
-8.07533873e-01 -5.74340867e-01 -1.34244597e-01
2.54232138e-01 -8.83831326e-01 -3.92693527e-01
1.54336555e-01 6.05313918e-01 -7.80881097e-01
-6.95330509e-01 -1.39853529e-01 7.04951398e-01
6.43164647e-01 2.98969502e-01 -7.04951398e-01
-9.91167119e-01 1.11802252e-01 7.13302026e-02
7.36155329e-01 -6.73043337e-01 7.13302025e-02
-2.51774059e-01 -4.49915836e-02 9.66739665e-01
7.25280433e-01 -6.03120160e-01 3.31985491e-01
-1.00592676e-11 1.89613345e-11 -1.00000000e+00
-6.01646705e-01 -7.71790888e-01 2.05815618e-01
-8.69294006e-01 1.52966014e-01 -4.70031201e-01
-2.28235313e-01 -4.39200031e-01 -8.68914250e-01
-6.88281751e-01 -3.51930732e-01 -6.34360301e-01
-8.68472203e-01 -1.57564918e-01 4.70031201e-01
3.30951072e-02 9.78031004e-01 2.05815618e-01
-9.26088191e-01 3.74061768e-01 -4.93807333e-02
-9.70121908e-01 1.48553176e-01 -1.91821367e-01
-6.41930871e-01 -7.65170765e-01 -4.93807334e-02
4.42801548e-01 2.21166938e-01 -8.68914250e-01
-1.58501690e-01 9.68546218e-01 -1.91821367e-01
-6.45971817e-01 7.61762401e-01 4.93807334e-02
2.36704474e-03 -8.94424059e-01 -4.47213596e-01
8.74532263e-01 -4.45418774e-01 1.91821367e-01
4.90168511e-01 -8.12842211e-01 -3.14678202e-01
-1.20592001e-01 2.25548195e-01 9.66739666e-01
7.63046314e-01 1.23884348e-01 6.34360301e-01
5.43799120e-01 8.13586165e-01 -2.05815618e-01
-3.16774673e-01 -5.40608421e-01 7.79356364e-01
9.19135593e-01 -3.13297684e-02 -3.92693527e-01
2.91680429e-01 9.47048529e-01 1.34244597e-01
3.18396009e-01 -8.62795326e-01 3.92693527e-01
3.49971939e-01 6.89279806e-01 -6.34360301e-01
-8.55880869e-02 7.04072586e-01 -7.04951398e-01
8.34466573e-11 -7.16315372e-11 1.00000000e+00
-7.64726151e-01 5.10867603e-01 3.92693527e-01
3.47175461e-01 -3.52784956e-01 -8.68914250e-01
3.81111088e-01 -7.26475140e-01 -5.71828829e-01
-9.24095364e-01 -3.78958178e-01 4.93807334e-02
-1.19396519e-01 -2.26183312e-01 -9.66739666e-01
-8.18603343e-02 -7.04515729e-01 7.04951398e-01
5.75359095e-01 -2.48124103e-01 -7.79356364e-01
-2.94986854e-01 3.02334661e-01 -9.06408577e-01
-7.98859454e-01 -7.48651207e-02 -5.96840671e-01
7.48494727e-02 -9.95971435e-01 4.93807333e-02
2.29541028e-01 1.12806630e-01 -9.66739666e-01
-2.93382509e-01 -3.03891749e-01 9.06408577e-01
2.49550586e-01 8.85164560e-01 3.92693527e-01
-8.72363420e-01 -3.74111873e-01 3.14678201e-01
-6.96060994e-01 1.36171287e-01 -7.04951398e-01
3.53615295e-01 -6.87417800e-01 6.34360301e-01
9.18956895e-01 3.61941805e-02 3.92693527e-01
9.69089075e-01 2.41718654e-01 -4.93807334e-02
-6.14855637e-02 6.23556881e-01 7.79356364e-01
3.15719536e-01 9.39308023e-01 -1.34244597e-01
-7.35090539e-02 4.89473640e-01 -8.68914250e-01
-4.80655490e-01 -3.98992496e-01 -7.80881097e-01
6.44738040e-01 -2.95561137e-01 7.04951398e-01
-5.44500043e-01 -5.48731913e-01 6.34360301e-01
6.05083698e-01 -5.26929722e-01 5.96840671e-01
9.25654273e-01 -2.10099490e-01 3.14678201e-01
4.43965950e-01 -2.18820156e-01 8.68914250e-01
5.27644251e-01 -7.22212950e-01 4.47213595e-01
-6.90134828e-01 3.48282827e-01 6.34360301e-01
2.96688934e-01 -9.45491441e-01 -1.34244597e-01
-5.47396774e-01 5.45842267e-01 -6.34360301e-01
-2.27416849e-01 -9.15460109e-01 -3.31985492e-01
7.63691328e-01 -1.19843920e-01 -6.34360301e-01
5.87283473e-02 4.18299501e-01 9.06408577e-01
9.41809594e-01 -2.65771746e-01 -2.05815618e-01
8.08688718e-01 1.37965019e-01 -5.71828829e-01
6.95768925e-02 9.96353652e-01 -4.93807333e-02
-7.99244514e-01 7.06358253e-02 5.96840671e-01
-5.27995128e-01 3.33835074e-01 -7.80881097e-01
3.77260622e-01 7.28482129e-01 5.71828829e-01
-3.50129242e-02 -2.53354523e-01 9.66739665e-01
-5.23814292e-01 -7.24995578e-01 4.47213596e-01
-5.73149113e-01 -5.86951347e-01 -5.71828829e-01
-6.05723254e-01 7.68595648e-01 -2.05815618e-01
6.23584773e-01 -3.69694759e-02 7.80881097e-01
9.70354883e-01 -2.36586021e-01 4.93807333e-02
-9.19935809e-01 3.33703519e-01 2.05815618e-01
8.62264128e-02 -9.45273841e-01 3.14678201e-01
8.00378631e-01 -4.99179007e-01 -3.31985492e-01
-7.92635583e-01 -5.94732899e-01 1.34244597e-01
4.83085699e-01 -5.19299272e-01 -7.04951398e-01
1.57538232e-01 -6.04488559e-01 7.80881097e-01
-9.41269331e-01 6.16253169e-02 3.31985492e-01
8.49916372e-01 2.78643428e-01 4.47213596e-01
6.13362457e-01 -6.34710301e-01 -4.70031201e-01
7.93184791e-01 3.87206092e-01 -4.70031201e-01
3.45303359e-01 3.54617563e-01 8.68914250e-01
-6.11318974e-01 -1.37450975e-01 -7.79356364e-01
4.15974524e-01 7.34076771e-02 9.06408577e-01
-9.18156679e-01 -3.38567931e-01 -2.05815618e-01
-1.79801476e-01 7.81954374e-01 5.96840671e-01
2.27858353e-01 5.81640166e-01 7.80881097e-01
3.82712193e-02 -9.77842137e-01 -2.05815618e-01
-5.26220792e-01 -3.36624999e-01 7.80881097e-01
8.12220082e-02 9.45716985e-01 -3.14678201e-01
-1.75660186e-01 -7.82895084e-01 -5.96840671e-01
-8.49916372e-01 -2.78643428e-01 -4.47213596e-01
-6.21588481e-01 -7.17360014e-01 -3.14678202e-01
2.30134881e-01 -1.11590123e-01 9.66739665e-01
-1.23147297e-01 8.74016827e-01 -4.70031201e-01
8.09407620e-01 -1.33682815e-01 5.71828829e-01
1.17973262e-01 7.63982538e-01 6.34360301e-01
-7.22177340e-01 -5.69431017e-01 3.92693527e-01
6.09994436e-01 6.37947849e-01 4.70031201e-01
6.97527744e-01 -6.90405395e-01 -1.91821367e-01
1.77244103e-01 1.84388034e-01 9.66739665e-01
6.02286260e-01 5.30124961e-01 -5.96840671e-01
2.30933698e-01 -5.80425998e-01 -7.80881097e-01
-2.36704474e-03 8.94424059e-01 4.47213596e-01
-4.41066622e-01 -8.76735307e-01 -1.91821367e-01
4.80330357e-01 5.21848900e-01 7.04951398e-01
-9.90561483e-01 -1.17046789e-01 -7.13302026e-02
-7.25181139e-01 5.65600662e-01 -3.92693527e-01
-8.51379287e-01 2.74141041e-01 4.47213596e-01
-3.19631597e-01 5.38924207e-01 -7.79356364e-01
-7.09173115e-02 -4.89855857e-01 8.68914250e-01
-4.88232642e-01 8.13444086e-02 -8.68914250e-01
-5.81843066e-02 -6.23873581e-01 -7.79356364e-01
-3.63534023e-02 2.53165656e-01 -9.66739666e-01
-4.82760566e-01 3.96442868e-01 7.80881097e-01
-4.45700876e-01 8.74388525e-01 1.91821367e-01
-4.14105945e-01 -7.79478631e-01 -4.70031201e-01
8.51379287e-01 -2.74141041e-01 -4.47213596e-01
-3.78693301e-01 -1.87122622e-01 -9.06408577e-01
-3.49477379e-01 -8.76157061e-01 3.31985491e-01
-6.12037919e-01 1.34213427e-01 7.79356364e-01
7.22078046e-01 6.06950516e-01 -3.31985491e-01
9.90830884e-01 1.52495168e-02 1.34244597e-01
-4.17418443e-01 9.05910506e-01 -7.13302025e-02
-8.10562465e-01 5.70058663e-01 1.34244597e-01
5.29353094e-01 -8.46963308e-01 -4.93807333e-02
1.22980798e-01 -8.11102653e-01 5.71828829e-01
-7.33401307e-01 -3.67606193e-01 5.71828829e-01
4.85859390e-01 8.15425216e-01 3.14678201e-01
-9.69322049e-01 -1.53685809e-01 1.91821367e-01
-3.47877554e-01 6.18081495e-01 7.04951398e-01
-2.32259060e-01 9.14243601e-01 3.31985492e-01
8.70179450e-01 -4.87544590e-01 -7.13302026e-02
-6.25376657e-01 7.14059988e-01 3.14678201e-01
-2.52008666e-01 4.36583499e-02 -9.66739665e-01
-1.53373096e-01 -9.69371578e-01 1.91821367e-01
9.90897719e-01 -1.00049796e-02 -1.34244597e-01
9.24529282e-01 2.14995900e-01 -3.14678201e-01
8.67586759e-01 4.92143494e-01 7.13302026e-02
1.98358047e-01 -3.72931062e-01 9.06408577e-01
6.90295488e-01 -4.08990651e-01 -5.96840671e-01
-8.74331320e-01 3.69489340e-01 -3.14678201e-01
7.97725338e-01 5.03408303e-01 3.31985491e-01
9.40389710e-01 2.70752884e-01 2.05815618e-01
-3.18062108e-01 7.36625895e-01 -5.96840671e-01
-1.94782221e-01 -9.78249400e-01 -7.13302026e-02
1.22015258e-01 -7.63347421e-01 -6.34360301e-01
-5.76247733e-01 5.83909531e-01 5.71828829e-01
-2.30556738e-01 4.37985863e-01 8.68914250e-01
6.93863759e-01 6.94087637e-01 1.91821367e-01
3.13824899e-01 8.64468465e-01 -3.92693527e-01
6.09415230e-02 -4.17982801e-01 -9.06408577e-01
-3.79678409e-01 1.85115632e-01 9.06408577e-01
8.72162476e-01 4.50041307e-01 -1.91821367e-01
4.13775783e-01 4.70524452e-01 -7.79356364e-01
1.78217559e-01 -1.83447324e-01 -9.66739666e-01
-7.35336720e-01 3.63719257e-01 -5.71828829e-01
-3.44601266e-01 -6.19914102e-01 -7.04951398e-01
5.23814292e-01 7.24995578e-01 -4.47213596e-01
6.88121091e-01 4.12638555e-01 5.96840671e-01
-1.18519528e-01 -8.74656385e-01 4.70031201e-01
-4.18225812e-01 7.77275910e-01 4.70031201e-01
3.20686734e-01 -9.37623809e-01 1.34244597e-01
-7.95772314e-01 5.90529264e-01 -1.34244597e-01
5.48097696e-01 -8.10696519e-01 2.05815618e-01
-7.62011491e-01 -5.14908032e-01 -3.92693527e-01
1.18686027e-01 8.11742211e-01 -5.71828829e-01
6.23380365e-01 4.02695015e-02 -7.80881097e-01
