8.89374484e-01 7.22855415e-02 4.51426506e-01
-7.89999908e-01 -6.12788613e-01 1.97528977e-02
1.80000276e-01 -8.00797099e-01 5.71245529e-01
2.20580507e-01 6.20084153e-01 7.52885550e-01
-3.22796342e-01 -7.53428383e-01 5.72840060e-01
-8.41139750e-01 4.60725705e-01 -2.83225989e-01
-2.20543940e-02 -3.42180321e-01 -9.39377594e-01
-8.41300091e-01 4.62279685e-01 2.80197157e-01
-2.20384733e-01 -9.36501656e-01 -2.72757012e-01
5.28355474e-01 2.22877787e-01 -8.19249352e-01
1.56031466e-01 9.73034123e-01 1.69876566e-01
-3.72961903e-03 -2.31312650e-01 9.72870172e-01
-1.60708895e-01 -5.27072744e-01 -8.34488200e-01
7.75263524e-01 -1.24944475e-01 -6.19159111e-01
8.49555564e-01 4.75914499e-01 -2.27511998e-01
9.48630342e-01 -2.82378954e-01 1.42695441e-01
2.94384372e-01 -6.63578508e-01 -6.87753123e-01
-7.48126075e-02 -8.03113560e-01 5.91108405e-01
3.67503749e-01 4.77375949e-02 -9.28798204e-01
-7.43077107e-01 6.55772886e-01 -1.33412547e-01
5.29070998e-01 2.19694945e-01 8.19642905e-01
-2.80987833e-01 8.90669027e-01 3.57425499e-01
9.37478665e-01 2.49230044e-01 2.42934341e-01
2.30716009e-01 -3.50661701e-01 -9.07640012e-01
-5.93345385e-01 8.04740730e-01 1.82629057e-02
-6.91561742e-01 -5.59902231e-01 4.56344047e-01
-4.39290283e-01 7.40021994e-01 5.09302768e-01
-2.47289389e-01 -8.90377007e-01 3.82197728e-01
2.44856028e-01 -2.20144991e-01 9.44233899e-01
3.46790310e-01 8.13865316e-01 -4.66220688e-01
-8.49555564e-01 -4.75914499e-01 -2.27511997e-01
7.49459902e-02 9.94648391e-01 -7.11194911e-02
3.58728229e-01 -9.25085926e-01 1.24617627e-01
6.99445081e-01 6.87093501e-01 -1.96672171e-01
2.98014594e-01 -8.90806624e-01 -3.43004859e-01
2.80987833e-01 -8.90669027e-01 3.57425499e-01
2.20384733e-01 9.36501656e-01 -2.72757012e-01
4.34238476e-01 8.77311111e-01 2.04355777e-01
-1.32141989e-01 -1.03635842e-02 9.91174473e-01
-9.96183931e-01 8.71577584e-02 -4.59577353e-03
-8.35820816e-01 -4.89503493e-01 2.48573585e-01
7.48126076e-02 8.03113560e-01 5.91108405e-01
-1.01759472e-01 -8.56006258e-01 -5.06853502e-01
2.20543939e-02 3.42180321e-01 -9.39377594e-01
-7.75263524e-01 1.24944475e-01 -6.19159111e-01
-6.43066291e-01 -3.87233242e-01 6.60691551e-01
-1.15956869e-02 -7.16415643e-01 -6.97579501e-01
-3.84236151e-01 -3.10319684e-02 9.22711026e-01
-4.42560368e-01 7.44838854e-01 -4.99357132e-01
-7.49459902e-02 -9.94648391e-01 -7.11194910e-02
1.74257875e-01 -9.79951671e-01 -9.65884621e-02
-6.99445081e-01 -6.87093501e-01 -1.96672171e-01
-1.74257875e-01 9.79951670e-01 -9.65884621e-02
1.13778013e-01 -5.52744209e-01 -8.25549482e-01
-6.16679567e-01 2.98690937e-01 -7.28349616e-01
-9.37478665e-01 -2.49230044e-01 2.42934342e-01
9.70275086e-01 -1.44853014e-02 -2.41572910e-01
-9.48630342e-01 2.82378954e-01 1.42695441e-01
-9.18597119e-01 -3.95103198e-01 8.52997227e-03
8.41139750e-01 -4.60725705e-01 -2.83225990e-01
5.57765967e-01 -5.41651617e-01 6.28894230e-01
8.35820816e-01 4.89503493e-01 2.48573585e-01
-6.29596460e-01 1.82452247e-02 7.76705913e-01
-5.66935013e-01 -7.19801720e-01 -4.00589433e-01
8.93068929e-01 -2.11541925e-01 -3.97088914e-01
-2.65380846e-01 -2.50507298e-01 9.31029056e-01
-8.98667478e-01 2.06841151e-01 3.86796899e-01
9.87223974e-01 1.59334853e-01 -1.11097731e-03
-7.57077219e-01 3.84138292e-01 -5.28463930e-01
1.60708895e-01 5.27072744e-01 -8.34488200e-01
-5.57765967e-01 5.41651617e-01 6.28894230e-01
-3.58728229e-01 9.25085926e-01 1.24617627e-01
2.79130382e-01 2.87332454e-01 -9.16258819e-01
-4.51770259e-02 6.48404477e-01 7.59952241e-01
-1.63205202e-01 8.24434382e-01 -5.41917280e-01
-4.08984771e-01 9.04759875e-01 -1.18918189e-01
9.47308750e-01 -2.83872258e-01 -1.48402530e-01
3.22796342e-01 7.53428383e-01 5.72840060e-01
4.12528943e-01 -4.59967288e-01 -7.86290875e-01
4.98428793e-01 5.88079759e-01 6.36967975e-01
4.75696049e-01 -1.93288515e-01 8.58107881e-01
1.56303428e-01 -4.52108476e-01 8.78159094e-01
-7.91142006e-01 1.20846143e-01 5.99573150e-01
-3.05539516e-01 6.32051370e-01 7.12147185e-01
9.49294799e-02 1.07694509e-01 -9.89643640e-01
-2.44856028e-01 2.20144991e-01 9.44233899e-01
-9.72667830e-01 9.75601493e-03 2.31993787e-01
5.64019274e-01 -5.48638737e-01 -6.17155122e-01
-3.91525640e-01 -4.35814809e-01 8.10413257e-01
8.41300091e-01 -4.62279685e-01 2.80197157e-01
6.72358216e-01 7.04632732e-01 2.26773387e-01
-6.40480932e-01 3.02933101e-01 7.05700137e-01
6.43066291e-01 3.87233242e-01 6.60691551e-01
-1.05048630e-01 -4.49908861e-01 8.86872593e-01
-8.73900781e-01 4.86103621e-01 8.30893526e-04
2.65380847e-01 2.50507298e-01 9.31029056e-01
-1.56303428e-01 4.52108476e-01 8.78159095e-01
2.71341010e-01 6.87538047e-01 -6.73549093e-01
6.03836230e-01 -2.87568752e-02 -7.96591657e-01
4.32315229e-01 -1.95720838e-01 -8.80227627e-01
1.15956867e-02 7.16415643e-01 -6.97579501e-01
-9.40023115e-01 -2.39834605e-01 -2.42563284e-01
-2.94384372e-01 6.63578508e-01 -6.87753123e-01
-5.29070998e-01 -2.19694945e-01 8.19642905e-01
-3.67503750e-01 -4.77375949e-02 -9.28798203e-01
9.18597119e-01 3.95103198e-01 8.52997216e-03
-6.66857940e-01 6.23099866e-01 4.08711745e-01
-4.75696048e-01 1.93288515e-01 8.58107882e-01
8.98667478e-01 -2.06841151e-01 3.86796899e-01
1.05048630e-01 4.49908860e-01 8.86872593e-01
5.13592228e-01 7.52657006e-01 4.11981416e-01
5.93345385e-01 -8.04740730e-01 1.82629056e-02
4.08984771e-01 -9.04759875e-01 -1.18918189e-01
-7.39388274e-01 6.55701340e-01 1.52840038e-01
5.08353984e-01 6.05577464e-01 -6.12253861e-01
-7.47502956e-01 -1.55651891e-01 6.45762377e-01
-3.46790310e-01 -8.13865316e-01 -4.66220688e-01
4.39290283e-01 -7.40021994e-01 5.09302768e-01
9.96183931e-01 -8.71577583e-02 -4.59577368e-03
-5.64019274e-01 5.48638737e-01 -6.17155122e-01
7.43077107e-01 -6.55772886e-01 -1.33412547e-01
6.16679567e-01 -2.98690937e-01 -7.28349616e-01
7.89999908e-01 6.12788612e-01 1.97528976e-02
-7.23443954e-01 -5.28055292e-01 -4.44734036e-01
-7.63375004e-01 3.94754534e-01 5.11297630e-01
-4.12528943e-01 4.59967288e-01 -7.86290875e-01
-9.70275086e-01 1.44853015e-02 -2.41572910e-01
-5.86179374e-01 -8.10142203e-01 7.95731071e-03
2.47289389e-01 8.90377007e-01 3.82197728e-01
-2.71341011e-01 -6.87538047e-01 -6.73549093e-01
-1.71128286e-01 1.23422922e-01 -9.77489687e-01
3.05539516e-01 -6.32051370e-01 7.12147185e-01
-1.80000276e-01 8.00797099e-01 5.71245529e-01
-7.36295079e-01 -1.44326542e-01 -6.61091706e-01
-9.87223974e-01 -1.59334853e-01 -1.11097721e-03
7.91142006e-01 -1.20846143e-01 5.99573150e-01
1.05843492e-01 -9.82792205e-01 1.51380274e-01
-5.60296474e-01 7.82868375e-01 -2.70529351e-01
7.39388274e-01 -6.55701340e-01 1.52840038e-01
-8.21570805e-01 -3.32145804e-01 4.63355790e-01
-1.56031466e-01 -9.73034123e-01 1.69876566e-01
-4.11548402e-01 -4.59405878e-01 -7.87132473e-01
-5.08353984e-01 -6.05577464e-01 -6.12253861e-01
-5.28355475e-01 -2.22877787e-01 -8.19249352e-01
8.21570805e-01 3.32145805e-01 4.63355790e-01
5.66935013e-01 7.19801720e-01 -4.00589433e-01
6.40480932e-01 -3.02933101e-01 7.05700137e-01
-9.47308750e-01 2.83872258e-01 -1.48402530e-01
1.63205202e-01 -8.24434382e-01 -5.41917280e-01
-2.98014594e-01 8.90806624e-01 -3.43004859e-01
4.32734550e-02 -9.46988086e-01 -3.18343117e-01
-8.83570241e-01 -5.44816106e-02 -4.65120822e-01
5.33472882e-01 -7.99970798e-01 2.74685688e-01
5.86179374e-01 8.10142203e-01 7.95731068e-03
4.05459899e-01 -4.26791785e-01 8.08361041e-01
-4.66063421e-01 -8.58387256e-01 -2.14376134e-01
-6.80259581e-01 6.11489025e-01 -4.04140828e-01
3.84236151e-01 3.10319684e-02 9.22711025e-01
-4.32734550e-02 9.46988085e-01 -3.18343117e-01
-4.98428793e-01 -5.88079759e-01 6.36967975e-01
9.40023115e-01 2.39834605e-01 -2.42563284e-01
6.91561742e-01 5.59902231e-01 4.56344047e-01
-2.20580507e-01 -6.20084153e-01 7.52885550e-01
7.23443954e-01 5.28055292e-01 -4.44734036e-01
-6.03836230e-01 2.87568752e-02 -7.96591657e-01
-5.33472882e-01 7.99970798e-01 2.74685688e-01
4.11548402e-01 4.59405878e-01 -7.87132473e-01
8.30809787e-01 3.04335779e-01 -4.65979433e-01
1.71128285e-01 -1.23422922e-01 -9.77489687e-01
5.60296474e-01 -7.82868375e-01 -2.70529351e-01
-4.34238476e-01 -8.77311111e-01 2.04355777e-01
1.32141989e-01 1.03635841e-02 9.91174473e-01
3.72961912e-03 2.31312650e-01 9.72870172e-01
-6.72358216e-01 -7.04632732e-01 2.26773387e-01
-2.30716009e-01 3.50661701e-01 -9.07640012e-01
6.29596460e-01 -1.82452247e-02 7.76705913e-01
6.47648077e-01 3.87865018e-01 -6.55831923e-01
4.51770260e-02 -6.48404477e-01 7.59952241e-01
1.01759472e-01 8.56006258e-01 -5.06853502e-01
-6.47648077e-01 -3.87865018e-01 -6.55831923e-01
4.66063421e-01 8.58387256e-01 -2.14376134e-01
-1.81980853e-02 9.23760124e-01 3.82536823e-01
-3.32304745e-01 -9.42979656e-01 -1.90527311e-02
7.47502956e-01 1.55651891e-01 6.45762377e-01
7.57077219e-01 -3.84138292e-01 -5.28463930e-01
-1.05843492e-01 9.82792205e-01 1.51380274e-01
3.91525640e-01 4.35814809e-01 8.10413257e-01
8.83570241e-01 5.44816106e-02 -4.65120822e-01
9.72667830e-01 -9.75601484e-03 2.31993787e-01
-8.89374484e-01 -7.22855415e-02 4.51426507e-01
4.42560368e-01 -7.44838854e-01 -4.99357133e-01
-5.13592228e-01 -7.52657006e-01 4.11981416e-01
-8.30809787e-01 -3.04335779e-01 -4.65979433e-01
6.66857940e-01 -6.23099866e-01 4.08711745e-01
1.81980854e-02 -9.23760124e-01 3.82536823e-01
-4.05459899e-01 4.26791785e-01 8.08361041e-01
-8.93068929e-01 2.11541925e-01 -3.97088914e-01
3.32304745e-01 9.42979656e-01 -1.90527312e-02
-2.79130382e-01 -2.87332454e-01 -9.16258819e-01
7.63375004e-01 -3.94754534e-01 5.11297630e-01
8.73900781e-01 -4.86103621e-01 8.30893402e-04
7.36295079e-01 1.44326542e-01 -6.61091706e-01
-1.13778013e-01 5.52744209e-01 -8.25549482e-01
6.80259581e-01 -6.11489025e-01 -4.04140828e-01
-4.32315229e-01 1.95720838e-01 -8.80227627e-01
-9.49294801e-02 -1.07694509e-01 -9.89643640e-01
