5.60141717e-01 4.01848017e-02 8.27423211e-01
7.02115478e-01 -9.77511557e-02 -7.05319954e-01
-9.24070383e-01 3.63656336e-01 1.17679159e-01
5.06504837e-01 -1.37434835e-01 -8.51211904e-01
-7.31653318e-01 -6.11165086e-01 3.01929886e-01
-3.68792000e-01 -9.01355683e-01 -2.27045467e-01
8.37936279e-01 4.12938435e-01 -3.56852158e-01
1.32268157e-01 -4.38851561e-01 8.88772962e-01
5.08581873e-01 2.80439127e-01 8.14064532e-01
7.07711176e-01 2.29857161e-01 6.68066451e-01
7.51696895e-01 -2.16147500e-02 6.59156095e-01
3.20606742e-01 9.17607463e-01 2.34965181e-01
3.81470969e-01 -8.56594881e-01 -3.47453540e-01
4.83194788e-02 -8.17296929e-01 5.74188867e-01
-7.58813173e-01 3.13440423e-01 -5.70925375e-01
-2.26904191e-02 -8.95420750e-01 -4.44640706e-01
-8.69448941e-01 3.25389181e-01 3.71727921e-01
7.06565216e-01 -5.01766822e-01 4.98996292e-01
9.70592790e-01 -1.36137396e-01 1.98536899e-01
8.55908518e-01 -5.99872912e-02 -5.13634537e-01
9.74511280e-01 -2.08767394e-01 -8.21198528e-02
1.52955344e-01 -9.49113610e-01 -2.75294587e-01
-1.08872930e-01 -5.60289113e-01 8.21112359e-01
4.72829731e-01 8.80957963e-01 1.85788822e-02
5.12623265e-01 -6.54426664e-01 5.55828180e-01
2.20740853e-01 -9.64209728e-01 1.46879411e-01
-3.75639022e-01 5.27057455e-01 -7.62301284e-01
7.31653318e-01 6.11165086e-01 3.01929886e-01
1.24344925e-01 -4.57764124e-01 -8.80333709e-01
-9.70592790e-01 1.36137396e-01 1.98536899e-01
-5.85913417e-01 -7.84173476e-01 -2.04393622e-01
5.41520557e-01 -8.29077905e-01 -1.39229497e-01
-1.52955344e-01 9.49113610e-01 -2.75294587e-01
-8.99367184e-01 -4.21220483e-01 -1.17096481e-01
-8.40804873e-01 -5.32742267e-01 9.60893341e-02
-8.81810090e-01 -3.68135483e-01 2.94768052e-01
-1.32678454e-01 1.96275553e-01 9.71532575e-01
-5.68783531e-01 3.52201138e-01 -7.43261192e-01
5.44013541e-01 7.95435132e-01 2.67082572e-01
-3.81470969e-01 8.56594881e-01 -3.47453540e-01
-9.69561823e-02 -5.74302530e-01 -8.12879707e-01
3.32588789e-01 2.33395534e-01 -9.13733115e-01
3.30930396e-01 4.75075530e-01 -8.15343867e-01
-4.04757873e-01 7.04893302e-01 -5.82489977e-01
-4.72829731e-01 -8.80957963e-01 1.85788822e-02
-3.64237231e-01 3.28209798e-01 8.71557483e-01
-5.78231187e-01 2.01103758e-01 7.90701324e-01
-5.44013541e-01 -7.95435132e-01 2.67082572e-01
5.74376491e-01 6.53697079e-01 4.92720410e-01
-6.23003759e-02 -7.58557682e-01 -6.48619121e-01
-2.92390472e-01 7.60601524e-01 5.79650798e-01
1.18063227e-01 -2.00559409e-01 -9.72539864e-01
-8.86644961e-01 4.30372003e-01 -1.69233842e-01
3.75639022e-01 -5.27057455e-01 -7.62301284e-01
-7.51696895e-01 2.16147499e-02 6.59156095e-01
1.09922192e-01 -6.51900133e-01 7.50297146e-01
8.74237349e-01 1.81594644e-01 -4.50256545e-01
3.20393265e-01 -9.43031756e-01 -8.96602842e-02
-7.07711176e-01 -2.29857161e-01 6.68066451e-01
2.26904190e-02 8.95420750e-01 -4.44640706e-01
4.81608253e-02 -9.97981820e-01 -4.13846037e-02
3.30853074e-01 -3.11032491e-01 -8.90950106e-01
6.61568140e-01 -7.45564982e-01 8.03785926e-02
-6.78829414e-01 -7.32245371e-01 5.48409009e-02
3.56609364e-01 -8.14356350e-02 9.30699238e-01
-3.08028768e-01 -6.84358949e-01 -6.60884956e-01
-3.85176243e-01 8.48174865e-01 3.63647990e-01
-8.89702260e-01 8.24277123e-02 4.49040136e-01
4.04757873e-01 -7.04893302e-01 -5.82489977e-01
3.18809576e-01 1.71698292e-01 9.32139061e-01
5.44006507e-01 3.45931028e-01 -7.64451516e-01
5.29534339e-02 9.79686110e-01 1.93421039e-01
-6.02237379e-01 5.41397567e-01 -5.86682944e-01
2.29173168e-01 9.73384408e-01 1.56796060e-03
-1.09922192e-01 6.51900133e-01 7.50297146e-01
1.37603196e-01 -9.18298287e-01 3.71207276e-01
-5.41520557e-01 8.29077906e-01 -1.39229497e-01
-5.12623265e-01 6.54426664e-01 5.55828180e-01
5.85913417e-01 7.84173476e-01 -2.04393622e-01
-3.68757963e-01 -7.99931145e-01 4.73422953e-01
7.32306366e-01 1.54066702e-01 -6.63316401e-01
7.16694443e-01 3.91637252e-01 -5.77033303e-01
8.86644961e-01 -4.30372003e-01 -1.69233843e-01
9.60714303e-01 -3.59250202e-02 -2.75202674e-01
9.24070383e-01 -3.63656336e-01 1.17679159e-01
-8.55908518e-01 5.99872912e-02 -5.13634537e-01
-5.06504837e-01 1.37434835e-01 -8.51211904e-01
-5.84862346e-01 7.11463809e-01 -3.89556156e-01
-3.30930396e-01 -4.75075530e-01 -8.15343867e-01
8.22010934e-01 -5.68892224e-01 2.56855330e-02
-5.42642663e-01 -1.07651771e-01 -8.33034985e-01
-4.81608252e-02 9.97981820e-01 -4.13846037e-02
-9.60072101e-01 -2.70461220e-01 7.15019242e-02
1.61261647e-01 -6.62785486e-01 -7.31237079e-01
-8.74237349e-01 -1.81594644e-01 -4.50256545e-01
7.58813173e-01 -3.13440423e-01 -5.70925375e-01
-7.06565216e-01 5.01766822e-01 4.98996292e-01
9.60072101e-01 2.70461220e-01 7.15019241e-02
-7.85974699e-01 5.55568717e-01 2.71271209e-01
-3.30853074e-01 3.11032491e-01 -8.90950106e-01
-7.52341405e-01 -4.33192528e-01 4.96314701e-01
-8.37936279e-01 -4.12938435e-01 -3.56852158e-01
4.61147419e-01 -8.78458139e-01 1.25119018e-01
-3.18809576e-01 -1.71698292e-01 9.32139061e-01
-6.80627473e-01 -6.05643060e-01 -4.12239451e-01
1.96271075e-01 -8.24064153e-01 -5.31407735e-01
6.23003758e-02 7.58557682e-01 -6.48619121e-01
9.69561822e-02 5.74302530e-01 -8.12879707e-01
5.28136437e-01 5.67406750e-01 -6.31758972e-01
3.78285441e-01 6.24414974e-01 6.83380072e-01
9.59062286e-01 1.04876003e-01 2.63061636e-01
-1.00441307e-01 -8.58291023e-02 -9.91232382e-01
-2.29173168e-01 -9.73384408e-01 1.56796059e-03
-4.83194788e-02 8.17296929e-01 5.74188867e-01
-3.20606742e-01 -9.17607463e-01 2.34965181e-01
-3.56609364e-01 8.14356349e-02 9.30699238e-01
-1.96271075e-01 8.24064153e-01 -5.31407735e-01
-8.58501265e-01 -1.76140287e-01 4.81613712e-01
3.17630081e-01 4.34495209e-01 8.42809485e-01
8.81810090e-01 3.68135483e-01 2.94768052e-01
9.99575358e-01 2.89072679e-02 -3.66901753e-03
3.08028768e-01 6.84358949e-01 -6.60884956e-01
1.07382323e-01 3.44663677e-01 -9.32562548e-01
1.70247647e-01 7.41456357e-01 6.49045725e-01
8.95349757e-01 -2.66756631e-01 -3.56635017e-01
6.02237379e-01 -5.41397567e-01 -5.86682944e-01
-5.61426058e-01 4.35025985e-01 7.03957028e-01
3.68792000e-01 9.01355683e-01 -2.27045467e-01
-6.61568140e-01 7.45564982e-01 8.03785927e-02
-8.22010934e-01 5.68892224e-01 2.56855330e-02
-2.20740853e-01 9.64209728e-01 1.46879411e-01
-7.27105811e-01 6.60340880e-01 -1.87793612e-01
3.68757963e-01 7.99931145e-01 4.73422953e-01
7.27105812e-01 -6.60340880e-01 -1.87793612e-01
7.52816426e-01 -2.68289106e-01 6.01074346e-01
1.24798816e-01 9.65515399e-01 -2.28483076e-01
8.89702260e-01 -8.24277123e-02 4.49040136e-01
-1.24344925e-01 4.57764124e-01 -8.80333709e-01
5.78231187e-01 -2.01103758e-01 7.90701324e-01
-4.61147419e-01 8.78458139e-01 1.25119018e-01
-5.73332093e-01 -4.70539452e-01 6.70734784e-01
-7.16694443e-01 -3.91637252e-01 -5.77033303e-01
8.40804873e-01 5.32742267e-01 9.60893341e-02
-1.24798816e-01 -9.65515399e-01 -2.28483076e-01
-3.17630081e-01 -4.34495209e-01 8.42809485e-01
-3.20393265e-01 9.43031756e-01 -8.96602841e-02
-5.08581873e-01 -2.80439127e-01 8.14064532e-01
1.00441306e-01 8.58291023e-02 -9.91232382e-01
-1.18063227e-01 2.00559409e-01 -9.72539864e-01
-7.02115478e-01 9.77511558e-02 -7.05319954e-01
-9.99575358e-01 -2.89072678e-02 -3.66901749e-03
7.68511710e-01 -5.05114452e-01 -3.92743995e-01
1.08154676e-01 6.06897841e-02 9.92281509e-01
-9.70192927e-02 -3.21659797e-01 9.41873315e-01
6.04518663e-01 -7.24704544e-01 3.30698656e-01
-1.08154676e-01 -6.06897841e-02 9.92281509e-01
-7.32306366e-01 -1.54066702e-01 -6.63316401e-01
-7.64970257e-01 -6.22230945e-01 -1.66278705e-01
5.42642663e-01 1.07651771e-01 -8.33034985e-01
3.46680196e-01 -5.59242685e-01 7.53035821e-01
-6.04518663e-01 7.24704544e-01 3.30698656e-01
9.58900359e-01 1.97197087e-01 -2.04016511e-01
5.84862346e-01 -7.11463809e-01 -3.89556156e-01
5.68783531e-01 -3.52201138e-01 -7.43261192e-01
7.85974699e-01 -5.55568717e-01 2.71271209e-01
2.92390472e-01 -7.60601524e-01 5.79650798e-01
-5.28136437e-01 -5.67406750e-01 -6.31758972e-01
-3.46680196e-01 5.59242685e-01 7.53035821e-01
-3.32588789e-01 -2.33395534e-01 -9.13733115e-01
8.58501265e-01 1.76140287e-01 4.81613712e-01
3.64237231e-01 -3.28209799e-01 8.71557483e-01
-3.12404876e-01 2.50006807e-02 -9.49618357e-01
-5.74376491e-01 -6.53697079e-01 4.92720410e-01
-1.39194738e-01 -8.97500474e-01 4.18472349e-01
3.85176243e-01 -8.48174865e-01 3.63647990e-01
-1.32268157e-01 4.38851561e-01 8.88772962e-01
6.78829414e-01 7.32245371e-01 5.48409010e-02
-1.70247647e-01 -7.41456357e-01 6.49045725e-01
-1.37603196e-01 9.18298287e-01 3.71207276e-01
8.99367184e-01 4.21220483e-01 -1.17096481e-01
5.61426058e-01 -4.35025985e-01 7.03957028e-01
7.52341405e-01 4.33192528e-01 4.96314701e-01
-8.95349757e-01 2.66756631e-01 -3.56635017e-01
9.70192927e-02 3.21659797e-01 9.41873315e-01
7.64970257e-01 6.22230945e-01 -1.66278705e-01
-9.60714303e-01 3.59250202e-02 -2.75202674e-01
-7.52816426e-01 2.68289106e-01 6.01074346e-01
8.69448941e-01 -3.25389181e-01 3.71727921e-01
-4.84741543e-01 -7.52574177e-01 -4.45708731e-01
-5.29534338e-02 -9.79686110e-01 1.93421039e-01
5.73332093e-01 4.70539452e-01 6.70734784e-01
4.84741543e-01 7.52574177e-01 -4.45708731e-01
-5.44006507e-01 -3.45931028e-01 -7.64451516e-01
1.32678454e-01 -1.96275553e-01 9.71532575e-01
-2.62477437e-01 -8.47774931e-01 -4.60848933e-01
-1.07382323e-01 -3.44663677e-01 -9.32562548e-01
2.62477437e-01 8.47774931e-01 -4.60848933e-01
1.39194738e-01 8.97500474e-01 4.18472349e-01
-9.59062286e-01 -1.04876003e-01 2.63061637e-01
-9.58900359e-01 -1.97197087e-01 -2.04016511e-01
3.12404876e-01 -2.50006806e-02 -9.49618357e-01
-9.74511280e-01 2.08767394e-01 -8.21198527e-02
-3.78285441e-01 -6.24414974e-01 6.83380072e-01
1.08872930e-01 5.60289113e-01 8.21112359e-01
-7.68511710e-01 5.05114452e-01 -3.92743995e-01
6.80627473e-01 6.05643060e-01 -4.12239452e-01
-5.60141717e-01 -4.01848017e-02 8.27423211e-01
-1.61261647e-01 6.62785486e-01 -7.31237079e-01
