-8.88918451e-01 1.04491290e-01 4.45988293e-01
3.79339399e-01 -6.52926691e-01 -6.55582457e-01
-5.21712165e-01 -4.18858596e-01 7.43218605e-01
-9.73992558e-01 -2.24301134e-01 3.20546013e-02
-3.12179517e-01 4.94809937e-01 8.10991415e-01
2.42780603e-01 9.66611881e-01 -8.19698119e-02
-6.46344582e-01 -5.27433269e-01 5.51409855e-01
-6.98612356e-02 5.97039141e-01 7.99164359e-01
-5.90446613e-01 -7.07789725e-01 3.87822771e-01
8.70548270e-01 -1.75589708e-01 4.59688986e-01
-5.55740118e-01 -8.30737879e-01 -3.20546015e-02
-2.94411875e-01 -5.24078215e-01 7.99164359e-01
-5.94489429e-01 -8.89867792e-02 -7.99164359e-01
8.32921248e-01 4.67906654e-02 5.51409855e-01
-5.55001487e-01 7.35912255e-01 -3.87822771e-01
-9.59392171e-01 1.89864292e-01 2.08610195e-01
-9.99698747e-01 2.45441568e-02 -3.84982507e-11
6.64565139e-01 -7.17520008e-01 2.08610195e-01
4.67746236e-01 1.23374752e-02 8.83776694e-01
6.16529821e-02 9.19669728e-01 3.87822771e-01
3.32483851e-01 2.16938539e-01 -9.17819241e-01
-3.97730834e-01 -8.84764336e-01 -2.42903796e-01
9.52258860e-01 -3.72377709e-02 -3.03012232e-01
9.19817431e-01 -3.91035032e-01 3.20546015e-02
5.33257167e-01 -2.77440302e-01 -7.99164359e-01
6.42064641e-01 3.92756876e-01 -6.58403397e-01
-1.23098221e-01 3.77431675e-01 9.17819241e-01
-7.52321116e-01 -2.27575094e-02 6.58403397e-01
-3.53833130e-01 9.03216398e-01 2.42903796e-01
9.75033897e-01 1.70935426e-01 1.41739125e-01
3.29679395e-01 8.94144890e-01 -3.03012232e-01
-1.03577651e-01 3.83248629e-01 -9.17819241e-01
-9.09559062e-01 -3.90656286e-01 -1.41739125e-01
-9.58799509e-03 5.84979482e-01 -8.10991415e-01
3.20919411e-01 2.33706167e-01 9.17819241e-01
8.23199969e-01 5.67751540e-01 1.06879106e-10
-2.18174458e-01 -8.68040522e-01 -4.45988293e-01
3.74123438e-01 4.49805043e-01 8.10991416e-01
-2.10836333e-01 -7.22532357e-01 6.58403397e-01
8.87764001e-01 4.10313130e-01 2.08610195e-01
4.07449729e-01 -4.41951407e-01 7.99164359e-01
-4.34568152e-01 8.76146282e-01 -2.08610195e-01
9.54027890e-03 -9.67615609e-01 2.52247928e-01
-7.92281413e-01 -5.29597725e-01 -3.03012232e-01
7.58135980e-01 -4.75735513e-01 -4.45988293e-01
-7.65337620e-01 5.67839691e-01 3.03012232e-01
-1.63412844e-01 -9.64249983e-01 -2.08610195e-01
1.02018474e-01 -8.82200809e-01 4.59688986e-01
-8.44279196e-01 5.29597572e-01 -8.19698120e-02
7.49669391e-01 6.15624521e-01 2.42903796e-01
9.94325860e-01 6.78014241e-02 -8.19698120e-02
-1.93556838e-01 1.43641640e-01 9.70516785e-01
-2.00372636e-01 -1.33970060e-01 -9.70516785e-01
6.18345532e-01 -7.85252383e-01 -3.20546015e-02
8.93709707e-01 2.25558105e-01 3.87822771e-01
-6.32436946e-01 -6.23465753e-01 -4.59688986e-01
9.65470742e-01 -2.18577828e-01 -1.41739125e-01
-3.82834489e-02 -5.83804164e-01 8.10991415e-01
-5.88849953e-02 -7.80904802e-01 -6.21868353e-01
-5.03747863e-01 -5.62538650e-01 -6.55582457e-01
7.21603331e-02 -2.29978382e-01 9.70516785e-01
1.32807900e-01 4.48665595e-01 8.83776695e-01
-6.19682835e-01 5.58516209e-01 -5.51409855e-01
8.05340922e-01 3.64166110e-01 -4.67770289e-01
4.36009946e-01 7.73680401e-01 4.59688986e-01
8.78116212e-01 1.32657279e-01 -4.59688986e-01
6.68272913e-01 3.22090057e-02 7.43218605e-01
5.53385695e-01 1.89887327e-01 -8.10991415e-01
-5.89406274e-01 1.18053257e-01 7.99164359e-01
-9.01085099e-01 3.52727411e-01 -2.52247928e-01
-5.76468432e-01 7.77209836e-01 2.52247928e-01
8.41822432e-01 4.82009065e-01 -2.42903796e-01
-7.01350308e-01 4.51724382e-01 5.51409855e-01
-3.99268244e-01 7.88527632e-01 4.67770289e-01
-5.00528721e-01 4.43956197e-01 -7.43218605e-01
3.03545307e-01 9.03351445e-01 3.03012232e-01
4.63871295e-01 -8.74490390e-01 1.41739125e-01
-6.52605414e-01 7.44322641e-01 -1.41739125e-01
-1.41471812e-01 -3.70936069e-01 -9.17819241e-01
1.38732794e-01 9.80134293e-01 1.41739125e-01
3.99320433e-02 -7.54067023e-01 6.55582457e-01
7.29500036e-01 -1.95041895e-01 6.55582457e-01
2.41021208e-01 -2.43867336e-03 9.70516785e-01
4.10923773e-01 6.33524502e-01 6.55582457e-01
-1.75125100e-01 7.32008310e-01 -6.58403397e-01
7.24488136e-01 -2.97315813e-01 -6.21868353e-01
-3.74068031e-01 -8.13122101e-01 4.45988293e-01
-1.15896813e-01 9.71107468e-01 2.08610195e-01
8.17154294e-01 -5.22739520e-01 2.42903796e-01
1.95053040e-01 -9.77361377e-01 8.19698120e-02
-7.22673007e-01 -4.16762398e-01 -5.51409855e-01
1.43985337e-01 -6.53371509e-01 -7.43218605e-01
-8.89292315e-01 4.34820881e-01 1.41739125e-01
9.36321129e-01 2.44282062e-01 -2.52247928e-01
2.85403345e-01 -9.09246126e-01 3.03012232e-01
3.51599164e-01 -4.67622660e-01 -8.10991415e-01
-2.04922971e-02 7.82853637e-01 6.21868353e-01
8.29621535e-01 -8.76086728e-02 -5.51409855e-01
1.75875102e-01 6.45518438e-01 7.43218605e-01
-9.17309021e-01 -3.08083012e-01 2.52247928e-01
-6.88345671e-01 -7.11400209e-01 1.41739125e-01
7.38205585e-01 2.61404411e-01 6.21868353e-01
9.89800611e-01 -1.16514811e-01 8.19698121e-02
9.04669990e-02 -9.85761504e-01 -1.41739125e-01
-1.40470119e-01 -8.72616240e-01 4.67770289e-01
7.38192505e-01 1.59007764e-01 -6.55582456e-01
-5.59576122e-01 3.66743329e-01 7.43218605e-01
5.71942871e-01 -4.89271211e-01 -6.58403397e-01
7.86499707e-01 -4.03248270e-01 4.67770289e-01
5.06643288e-01 5.97153524e-01 -6.21868353e-01
-8.55606068e-01 3.42829045e-01 3.87822771e-01
6.56135633e-01 7.53961891e-01 3.20546015e-02
4.76728439e-01 -6.21296827e-01 6.21868353e-01
-1.96423670e-01 -1.39695784e-01 9.70516785e-01
5.61031937e-01 7.88425107e-01 2.52247928e-01
-1.75313785e-01 8.77701270e-01 4.45988293e-01
5.46229656e-01 2.50937224e-01 7.99164359e-01
6.98975687e-01 6.84042963e-01 -2.08610195e-01
6.26553670e-01 6.23395104e-01 4.67770289e-01
-3.96998296e-01 -4.40563861e-04 9.17819241e-01
9.52938937e-01 -9.53779396e-03 3.03012232e-01
3.71746575e-01 -9.24708297e-01 -8.19698121e-02
7.94346582e-01 -6.07464820e-01 -2.33404896e-11
1.73046354e-01 -8.16089536e-01 -5.51409855e-01
-7.50297905e-01 5.96491401e-02 -6.58403397e-01
-7.88384931e-01 4.08821766e-01 -4.59688986e-01
8.66558884e-01 -4.53384481e-01 -2.08610195e-01
5.28389254e-01 7.55247174e-01 -3.87822771e-01
-3.85666440e-01 2.64953112e-01 8.83776694e-01
6.54945486e-02 -2.31964726e-01 -9.70516785e-01
3.09063972e-01 -2.49173238e-01 -9.17819241e-01
-7.48505788e-01 5.89849704e-01 -3.03012232e-01
-7.32279828e-01 6.76052663e-01 8.19698120e-02
7.80568573e-01 4.37957926e-01 4.45988293e-01
-3.32266782e-01 -9.43185446e-01 -1.31621587e-11
3.01887388e-01 -7.77696070e-01 5.51409855e-01
-3.96498360e-01 1.99221392e-02 -9.17819241e-01
-7.50870521e-01 2.22425745e-01 6.21868353e-01
-3.71162868e-01 -2.84915566e-01 8.83776694e-01
-5.76899315e-01 -3.38841092e-01 -7.43218605e-01
-6.90672700e-01 3.05258685e-01 -6.55582457e-01
-8.92975210e-01 -6.07430336e-02 -4.45988294e-01
-4.11365364e-01 6.66376987e-01 -6.21868353e-01
5.70130939e-02 9.65981620e-01 -2.52247928e-01
-4.37483024e-01 -7.67984089e-01 -4.67770289e-01
3.21437325e-01 -2.32993320e-01 9.17819241e-01
-1.89331648e-01 1.49166676e-01 -9.70516785e-01
5.21665188e-01 -8.15007002e-01 -2.52247928e-01
8.23507678e-11 3.37684082e-11 -1.00000000e-00
-2.68338793e-01 5.37894618e-01 -7.99164359e-01
9.37898674e-01 3.45425217e-01 -3.20546013e-02
-4.77040157e-01 -8.53764883e-01 2.08610195e-01
-8.73315015e-01 -1.36058226e-01 4.67770289e-01
4.16677380e-01 9.05351264e-01 8.19698121e-02
7.18555300e-01 -6.51671717e-01 -2.42903796e-01
-2.85581022e-01 9.58354569e-01 3.08430350e-11
-9.90758801e-02 -5.92891472e-01 -7.99164359e-01
3.97517403e-01 -7.94144792e-01 -4.59688986e-01
2.58848946e-01 -9.17159098e-01 -3.03012232e-01
-7.04820676e-01 -2.70997155e-01 6.55582456e-01
6.22017097e-01 -4.23792045e-01 6.58403397e-01
-4.43571206e-01 -6.45386967e-01 6.21868353e-01
-2.88584507e-01 -6.95143114e-01 -6.58403397e-01
-2.44640263e-01 -9.38695311e-01 2.42903796e-01
7.68886594e-02 7.51198893e-01 -6.55582457e-01
-9.67553575e-01 -1.42554782e-01 -2.08610195e-01
-5.67060991e-01 -1.43995684e-01 8.10991415e-01
8.81564006e-01 -2.69143831e-01 -3.87822771e-01
-8.07497386e-01 -3.69640377e-01 4.59688986e-01
-1.98280424e-01 9.49569702e-01 -2.42903796e-01
2.12886253e-01 8.06614291e-01 5.51409855e-01
5.95264040e-01 4.60614469e-01 6.58403397e-01
-9.68350291e-01 -5.74060874e-02 2.42903796e-01
1.64472647e-02 -9.21587210e-01 -3.87822771e-01
5.43400518e-01 -2.16815132e-01 8.10991415e-01
4.28646934e-01 4.21423936e-01 -7.99164359e-01
-5.59311402e-01 1.71649876e-01 -8.10991416e-01
-8.92974699e-11 -3.57688949e-11 1.00000000e-00
-6.01079304e-01 6.53750492e-01 4.59688986e-01
-9.74785205e-02 8.78458249e-01 -4.67770289e-01
-2.54123688e-01 7.08467443e-01 6.58403397e-01
-3.56733868e-01 3.02786562e-01 -8.83776694e-01
-5.14303308e-01 8.57009107e-01 3.20546014e-02
-3.98203960e-01 -2.45707876e-01 -8.83776695e-01
-7.60881064e-01 -1.85309896e-01 -6.21868353e-01
-7.64573842e-01 -6.39302581e-01 -8.19698122e-02
2.37140272e-01 -6.25612178e-01 7.43218605e-01
3.39687953e-01 7.61944399e-01 -5.51409855e-01
6.65887147e-01 -6.49647072e-02 -7.43218605e-01
-8.65585961e-01 1.78750946e-01 -4.67770289e-01
9.23205238e-01 -2.89936323e-01 2.52247928e-01
-4.75535177e-01 5.86581570e-01 6.55582456e-01
2.40850493e-01 -9.39202522e-03 -9.70516785e-01
6.86728261e-01 5.74019806e-01 -4.45988293e-01
-7.76549969e-01 -5.52407216e-01 3.03012232e-01
1.77730305e-01 4.32840263e-01 -8.83776694e-01
6.57731694e-01 -6.07028386e-01 4.45988293e-01
2.67555553e-01 6.13221112e-01 -7.43218605e-01
1.45188263e-01 8.76131500e-01 -4.59688986e-01
-3.36085461e-01 -4.78894024e-01 -8.10991415e-01
8.33592424e-02 2.26160135e-01 -9.70516785e-01
1.10630286e-01 -4.54642380e-01 -8.83776695e-01
5.06226735e-01 8.50672977e-01 -1.41739125e-01
-6.13914312e-01 -7.47984091e-01 -2.52247928e-01
5.95206583e-01 -6.53391215e-01 -4.67770289e-01
-9.64366474e-01 1.04857286e-01 -2.42903796e-01
-9.61811814e-01 2.71828138e-01 -3.20546015e-02
7.67989654e-02 2.28471199e-01 9.70516785e-01
4.66577237e-01 -3.52765675e-02 -8.83776694e-01
-3.33714573e-01 8.30499263e-01 -4.45988293e-01
4.90689993e-01 -7.80267153e-01 3.87822771e-01
-8.69251202e-01 -4.87527740e-01 8.19698119e-02
-1.22260219e-01 -3.77703958e-01 9.17819241e-01
-8.76571977e-02 -9.95634832e-01 3.20546014e-02
-8.71399037e-01 -3.00428388e-01 -3.87822771e-01
-3.86922741e-02 9.98736908e-01 -3.20546014e-02
1.56275172e-01 -4.41040616e-01 8.83776694e-01
