-9.72981062e-03 9.76521317e-01 2.15202885e-01
-1.14598247e-01 -1.83032579e-01 -9.76402853e-01
-2.34891511e-01 7.05605922e-01 -6.68538457e-01
-6.01317204e-01 -2.29097519e-01 7.65463855e-01
-8.32493364e-01 5.45183388e-01 9.86420568e-02
3.85301470e-01 -8.83122811e-01 -2.67648726e-01
5.48995629e-01 1.59863954e-01 -8.20392671e-01
-7.90766655e-01 5.33821012e-01 -2.99536413e-01
7.95176739e-01 -3.65789113e-01 -4.83622169e-01
8.98524381e-01 -4.25703678e-01 -1.06910715e-01
8.04494041e-01 3.93440438e-01 -4.44963183e-01
-9.51085142e-01 2.90589367e-01 1.04858377e-01
-5.46572598e-01 8.35731213e-01 -5.30238431e-02
-9.59240903e-01 -1.96573680e-01 2.03018386e-01
2.16072508e-01 1.15601101e-01 9.69511638e-01
-7.65497258e-02 8.97578026e-01 4.34160695e-01
7.28009151e-01 3.78854237e-02 -6.84517872e-01
6.01317205e-01 2.29097519e-01 7.65463855e-01
-6.68687959e-01 7.28305286e-01 1.49761160e-01
-8.04494041e-01 -3.93440438e-01 -4.44963183e-01
-1.06325809e-01 3.30508583e-01 -9.37792761e-01
-5.44254858e-02 -9.14123323e-01 -4.01764681e-01
-4.87207992e-01 3.36116536e-01 -8.06009257e-01
5.46572599e-01 -8.35731213e-01 -5.30238432e-02
1.05965798e-01 4.28746071e-01 -8.97187036e-01
-1.56434538e-01 -6.64222932e-01 -7.30981052e-01
1.14598247e-01 1.83032580e-01 -9.76402853e-01
6.50445572e-01 -3.47779549e-02 7.58758192e-01
-8.98524381e-01 4.25703678e-01 -1.06910714e-01
-3.21331826e-01 8.44682409e-01 4.28087776e-01
-7.11471083e-01 -2.82712965e-01 -6.43334892e-01
7.90766655e-01 -5.33821012e-01 -2.99536413e-01
-8.06664652e-01 1.11646402e-01 5.80370115e-01
-9.33812445e-01 -2.40235143e-01 -2.65104444e-01
-1.56319437e-01 7.67054058e-01 6.22249723e-01
-1.43169676e-01 9.59054590e-01 -2.44368146e-01
3.37923095e-01 3.55031969e-02 -9.40501918e-01
-1.19705743e-01 -8.15170419e-01 5.66718555e-01
-4.63884200e-01 4.62687986e-01 7.55469526e-01
2.46271140e-01 -9.46509965e-01 2.08495133e-01
2.03081153e-01 -8.62923391e-01 -4.62730454e-01
2.38613980e-01 -5.91332273e-01 7.70319737e-01
-9.49676666e-01 -3.12619100e-01 -1.95819449e-02
7.30486348e-01 6.60078174e-01 1.75177565e-01
4.28675353e-01 -7.60235441e-01 -4.88136889e-01
5.28221491e-01 4.02797757e-01 -7.47484532e-01
8.32493364e-01 -5.45183388e-01 9.86420567e-02
-4.10973721e-02 -6.68589251e-01 7.42497339e-01
-4.07166134e-01 6.81147588e-01 6.08486698e-01
6.14158612e-01 -5.40532997e-01 5.75009137e-01
1.56434538e-01 6.64222932e-01 -7.30981052e-01
-8.50373951e-01 -4.76275389e-01 -2.23662761e-01
9.85978767e-01 -4.49203859e-02 1.60712954e-01
-7.28009151e-01 -3.78854236e-02 -6.84517871e-01
5.71000421e-01 8.19047753e-01 5.58526092e-02
7.31382078e-01 5.48919623e-01 4.04683917e-01
-1.09461394e-01 7.18982410e-02 -9.91385396e-01
2.74206529e-01 -3.66128516e-01 8.89249198e-01
-3.08620673e-01 -8.96849576e-01 -3.16879929e-01
1.86221742e-01 9.79714936e-01 7.40296886e-02
-3.72318186e-01 -8.07808599e-01 4.56975062e-01
-4.68129081e-01 8.63095382e-01 1.89531687e-01
-4.57047597e-01 -5.10122883e-02 8.87980114e-01
7.24864066e-01 -5.90556388e-01 3.54706376e-01
4.57047597e-01 5.10122882e-02 8.87980114e-01
4.16359215e-01 6.43784282e-01 -6.42015820e-01
-3.37096630e-01 -2.74882188e-01 -9.00445531e-01
1.56319438e-01 -7.67054058e-01 6.22249723e-01
-7.75615725e-01 -1.41296492e-01 6.15189347e-01
3.23770552e-01 -9.45552157e-01 -3.32207719e-02
9.10451367e-01 6.47814759e-02 4.08513467e-01
7.41030594e-01 -6.64639325e-01 -9.55398153e-02
-1.05965798e-01 -4.28746071e-01 -8.97187036e-01
3.20994635e-12 -5.50099029e-11 1.00000194e+00
-9.15896050e-01 1.74933285e-01 3.61295132e-01
2.34891511e-01 -7.05605922e-01 -6.68538457e-01
-9.10451367e-01 -6.47814760e-02 4.08513467e-01
-9.14491395e-01 2.70103489e-01 -3.01244794e-01
8.44953923e-01 3.05245973e-01 4.39180448e-01
-4.78352400e-01 2.10457567e-01 8.52578383e-01
-9.54443880e-01 9.67643699e-03 -2.98231606e-01
4.81164367e-01 4.78913185e-01 7.34251905e-01
3.72318186e-01 8.07808599e-01 4.56975063e-01
-7.88756296e-02 9.96762821e-01 -1.55709211e-02
2.44815874e-01 8.06246144e-01 -5.38544572e-01
-5.71000421e-01 -8.19047753e-01 5.58526092e-02
8.50373951e-01 4.76275389e-01 -2.23662761e-01
-6.50445572e-01 3.47779548e-02 7.58758192e-01
3.37096630e-01 2.74882189e-01 -9.00445531e-01
9.33812445e-01 2.40235143e-01 -2.65104444e-01
-4.81164367e-01 -4.78913185e-01 7.34251905e-01
1.86133839e-01 9.19430513e-01 3.46414591e-01
-3.91379789e-01 -8.97754124e-01 2.02139003e-01
6.85126697e-01 4.03000039e-01 6.06790515e-01
7.88756296e-02 -9.96762821e-01 -1.55709212e-02
-9.82665990e-01 1.60816431e-01 -9.22240168e-02
4.89347918e-01 7.51784500e-01 -4.41992044e-01
7.78537050e-01 -3.59237695e-01 5.14616688e-01
-6.93113061e-01 -6.31680050e-01 -3.47236596e-01
1.06766757e-02 -7.91435706e-01 -6.11157233e-01
-5.28221491e-01 -4.02797757e-01 -7.47484532e-01
-7.24864066e-01 5.90556388e-01 3.54706376e-01
6.29639523e-01 5.36080166e-01 -5.62289914e-01
9.51085142e-01 -2.90589367e-01 1.04858376e-01
2.81955921e-01 -4.76589557e-01 -8.32682427e-01
-3.23770552e-01 9.45552157e-01 -3.32207717e-02
6.23793203e-02 -2.34959573e-01 9.70003392e-01
1.09461394e-01 -7.18982409e-02 -9.91385396e-01
7.65497258e-02 -8.97578027e-01 4.34160695e-01
6.93113061e-01 6.31680050e-01 -3.47236596e-01
-8.44953923e-01 -3.05245973e-01 4.39180448e-01
-2.44815874e-01 -8.06246143e-01 -5.38544572e-01
-2.16072508e-01 -1.15601101e-01 9.69511638e-01
-1.86221742e-01 -9.79714936e-01 7.40296885e-02
3.91379789e-01 8.97754124e-01 2.02139003e-01
-2.72268915e-01 1.16766904e-01 9.55111947e-01
8.49716044e-01 5.27064689e-01 1.36202352e-02
4.68129081e-01 -8.63095382e-01 1.89531687e-01
-3.85301470e-01 8.83122811e-01 -2.67648725e-01
-7.15917353e-01 -6.90352350e-01 -1.04286014e-01
-1.86133839e-01 -9.19430513e-01 3.46414591e-01
-1.49550669e-01 -3.41042526e-01 9.28077686e-01
-4.28675353e-01 7.60235441e-01 -4.88136889e-01
6.54477697e-02 -5.86738190e-01 -8.07125614e-01
-4.43951899e-01 5.87645220e-01 -6.76444517e-01
-6.30133834e-01 4.36936620e-01 -6.41884143e-01
-4.16359215e-01 -6.43784282e-01 -6.42015820e-01
8.06664652e-01 -1.11646403e-01 5.80370115e-01
5.99136847e-01 -7.49450140e-01 -2.81706292e-01
4.87207992e-01 -3.36116536e-01 -8.06009257e-01
4.40395136e-02 -4.83267902e-01 8.74366082e-01
-4.40395135e-02 4.83267902e-01 8.74366082e-01
3.71097191e-01 9.25987031e-01 -6.95314610e-02
-7.41030594e-01 6.64639325e-01 -9.55398151e-02
1.20835687e-01 9.77974147e-01 -1.70190023e-01
9.72981062e-03 -9.76521317e-01 2.15202885e-01
6.99778847e-01 -2.05265990e-01 -6.84231530e-01
3.08620673e-01 8.96849576e-01 -3.16879929e-01
3.17742092e-01 -2.11483142e-01 -9.24289598e-01
-5.42014897e-01 7.39749272e-01 3.98738526e-01
-2.46271140e-01 9.46509965e-01 2.08495133e-01
-5.47509076e-01 -6.30695559e-01 5.49962777e-01
-4.89347918e-01 -7.51784500e-01 -4.41992044e-01
-7.95176739e-01 3.65789113e-01 -4.83622169e-01
9.54443880e-01 -9.67643696e-03 -2.98231606e-01
6.30133834e-01 -4.36936620e-01 -6.41884143e-01
5.44254857e-02 9.14123323e-01 -4.01764681e-01
4.78352400e-01 -2.10457567e-01 8.52578383e-01
2.39087792e-01 5.27660563e-01 8.15116260e-01
5.69777901e-01 7.55141565e-01 3.24215387e-01
-6.54477698e-02 5.86738191e-01 -8.07125614e-01
5.38928730e-01 -8.71216914e-02 -8.37831956e-01
4.07166134e-01 -6.81147588e-01 6.08486698e-01
5.42014897e-01 -7.39749272e-01 3.98738526e-01
8.73252758e-01 4.27968529e-01 2.32966655e-01
6.33908178e-01 -6.10143887e-01 -4.75271519e-01
8.61527381e-01 1.41809406e-01 -4.87502589e-01
9.82665990e-01 -1.60816431e-01 -9.22240169e-02
-2.39087792e-01 -5.27660563e-01 8.15116260e-01
-8.65187638e-01 4.05028639e-01 2.95640489e-01
-3.15420668e-01 -4.99407862e-01 -8.06906724e-01
6.68687959e-01 -7.28305286e-01 1.49761159e-01
-5.38928731e-01 8.71216915e-02 -8.37831956e-01
3.21331826e-01 -8.44682409e-01 4.28087776e-01
9.95060805e-01 8.17457984e-02 -5.63151849e-02
4.63884200e-01 -4.62687986e-01 7.55469526e-01
8.54924145e-01 -1.13349272e-01 -5.06216046e-01
4.10973722e-02 6.68589251e-01 7.42497339e-01
-1.06766757e-02 7.91435706e-01 -6.11157233e-01
6.48587561e-01 -2.92620572e-01 7.02645075e-01
9.49676666e-01 3.12619100e-01 -1.95819450e-02
3.15420668e-01 4.99407862e-01 -8.06906724e-01
-7.30486348e-01 -6.60078174e-01 1.75177565e-01
-2.03081153e-01 8.62923391e-01 -4.62730454e-01
3.88506975e-01 2.97153133e-01 8.72218853e-01
1.49550669e-01 3.41042526e-01 9.28077686e-01
-6.48587561e-01 2.92620572e-01 7.02645075e-01
1.43169676e-01 -9.59054590e-01 -2.44368146e-01
1.06325809e-01 -3.30508583e-01 -9.37792761e-01
-5.69777900e-01 -7.55141565e-01 3.24215387e-01
-3.17742092e-01 2.11483142e-01 -9.24289598e-01
-6.29639523e-01 -5.36080166e-01 -5.62289914e-01
-5.37251108e-01 -8.16156954e-01 -2.12716357e-01
-2.74206529e-01 3.66128516e-01 8.89249198e-01
9.59240903e-01 1.96573680e-01 2.03018386e-01
-7.78537050e-01 3.59237695e-01 5.14616688e-01
-3.17056598e-01 -6.83331332e-01 6.57674657e-01
-1.20835687e-01 -9.77974147e-01 -1.70190023e-01
9.15896050e-01 -1.74933285e-01 3.61295132e-01
1.19705743e-01 8.15170419e-01 5.66718555e-01
-7.31382078e-01 -5.48919623e-01 4.04683917e-01
-8.61527381e-01 -1.41809406e-01 -4.87502589e-01
-6.99778847e-01 2.05265990e-01 -6.84231530e-01
-2.38613979e-01 5.91332273e-01 7.70319737e-01
8.65187638e-01 -4.05028639e-01 2.95640489e-01
-3.88506975e-01 -2.97153133e-01 8.72218853e-01
3.17056598e-01 6.83331332e-01 6.57674657e-01
-9.95060805e-01 -8.17457984e-02 -5.63151848e-02
2.72268915e-01 -1.16766904e-01 9.55111947e-01
-6.33908178e-01 6.10143887e-01 -4.75271519e-01
-3.71097191e-01 -9.25987031e-01 -6.95314611e-02
4.43951899e-01 -5.87645220e-01 -6.76444517e-01
-5.99136847e-01 7.49450140e-01 -2.81706292e-01
7.11471083e-01 2.82712965e-01 -6.43334893e-01
-6.23793202e-02 2.34959573e-01 9.70003392e-01
5.37251108e-01 8.16156954e-01 -2.12716357e-01
5.47509076e-01 6.30695559e-01 5.49962777e-01
-6.85126697e-01 -4.03000039e-01 6.06790515e-01
-8.49716044e-01 -5.27064689e-01 1.36202352e-02
-9.85978767e-01 4.49203859e-02 1.60712954e-01
7.75615725e-01 1.41296492e-01 6.15189347e-01
-3.37923095e-01 -3.55031968e-02 -9.40501918e-01
-6.14158612e-01 5.40532997e-01 5.75009137e-01
7.15917353e-01 6.90352350e-01 -1.04286015e-01
-8.73252758e-01 -4.27968529e-01 2.32966656e-01
-2.81955921e-01 4.76589557e-01 -8.32682427e-01
-8.54924146e-01 1.13349272e-01 -5.06216046e-01
-5.48995629e-01 -1.59863954e-01 -8.20392671e-01
9.14491395e-01 -2.70103489e-01 -3.01244794e-01
