-6.22138876e-01 7.77010945e-01 9.59023472e-02
-8.77152071e-01 4.61269483e-01 1.33546916e-01
-6.99629668e-01 -7.00266938e-01 1.41931733e-01
-2.67092864e-10 -2.52855728e-10 1.00000026e+00
6.22138876e-01 -7.77010945e-01 9.59023471e-02
-4.73732474e-01 3.46785144e-01 -8.09516636e-01
7.22905360e-01 -5.82809638e-02 -6.88484429e-01
9.21698410e-01 3.76469183e-01 -9.35037235e-02
-1.65203031e-01 5.64482225e-01 8.08744829e-01
-5.65725351e-01 7.42155586e-01 3.59388510e-01
-2.64707823e-02 -8.26161447e-01 -5.62811040e-01
-1.24920390e-01 -3.25452328e-02 -9.91632586e-01
2.51270597e-01 8.54360405e-01 -4.54896854e-01
1.86625258e-01 -9.34544324e-01 3.02981977e-01
-9.24247467e-01 -9.91860463e-02 3.68685421e-01
-1.68544415e-01 -8.04522320e-01 5.69505851e-01
9.61700545e-01 2.46786935e-01 1.19282578e-01
4.51623744e-01 -2.42713264e-02 8.91878558e-01
-2.65182653e-01 7.15406827e-01 6.46429865e-01
1.56515377e-01 -5.72510756e-01 -8.04819204e-01
-2.30384886e-01 8.67931056e-01 -4.40020746e-01
-9.61700545e-01 -2.46786935e-01 1.19282577e-01
-4.30891237e-01 2.69018946e-01 8.61372161e-01
-3.09321307e-01 1.45706455e-01 -9.39728400e-01
3.65717515e-01 9.20266368e-02 -9.26164841e-01
-6.20325162e-01 -3.82000005e-01 -6.85034547e-01
-9.21698410e-01 -3.76469183e-01 -9.35037243e-02
-3.65717514e-01 -9.20266364e-02 -9.26164842e-01
-2.23613492e-01 -6.07052305e-01 7.62551574e-01
-9.86901517e-01 1.44945326e-01 -7.08252128e-02
-8.62353209e-01 -4.90631049e-01 1.25012731e-01
-4.21743787e-01 8.84149331e-01 2.01027967e-01
-9.12661980e-01 1.41682690e-01 3.83372306e-01
-7.42561760e-01 -1.78439982e-01 -6.45570189e-01
-3.91994246e-01 5.01125385e-01 7.71501304e-01
2.26166522e-02 4.36340354e-01 -8.99497144e-01
-5.66772985e-01 -7.27510596e-01 3.86648315e-01
5.95622963e-01 -4.10100463e-01 6.90688973e-01
7.53175482e-01 4.04902344e-01 5.18440987e-01
-4.51846976e-01 -8.47454298e-01 -2.78667145e-01
2.65182653e-01 -7.15406828e-01 6.46429864e-01
7.69449283e-01 -2.91216323e-01 5.68455057e-01
-7.22905360e-01 5.82809641e-02 -6.88484430e-01
-9.26208047e-01 -2.33592728e-01 -2.95927249e-01
6.42853712e-01 -7.46026446e-01 -1.73734150e-01
-8.04893053e-01 -3.45227327e-01 -4.82664493e-01
8.62820835e-02 9.25959166e-01 3.67634625e-01
9.32108877e-02 -8.48748577e-01 5.20516912e-01
-6.23114847e-01 -3.24490246e-01 7.11642003e-01
-8.03250656e-01 5.38332871e-01 -2.54923459e-01
7.42464004e-01 -6.20074321e-01 2.53486040e-01
-6.91014408e-01 5.34954813e-01 4.86130322e-01
5.02917387e-01 8.46316690e-01 1.75562679e-01
4.35903454e-01 4.78457097e-01 7.62277760e-01
6.32802514e-01 -1.66425595e-01 7.56216831e-01
3.91068597e-01 6.96137185e-01 6.02045419e-01
8.62353208e-01 4.90631049e-01 1.25012731e-01
-6.75143943e-01 2.96346512e-01 -6.75543521e-01
-5.95622963e-01 4.10100463e-01 6.90688973e-01
-2.44750646e-01 9.68409610e-01 4.77490707e-02
6.75143943e-01 -2.96346511e-01 -6.75543521e-01
-3.50782784e-01 -8.45615028e-01 4.02351678e-01
-5.02917387e-01 -8.46316690e-01 1.75562678e-01
2.65279898e-01 -9.40904781e-01 -2.10534223e-01
-4.55679129e-01 -2.22439024e-01 8.61903627e-01
-6.62418073e-01 -5.53802249e-01 -5.04484986e-01
-9.32108880e-02 8.48748577e-01 5.20516912e-01
4.61356723e-01 -8.85084578e-01 -6.14429261e-02
6.91014408e-01 -5.34954813e-01 4.86130322e-01
8.82988451e-01 3.35444441e-01 3.28342191e-01
4.31457849e-01 -7.21656148e-01 -5.41346696e-01
-1.86625258e-01 9.34544324e-01 3.02981977e-01
7.49138964e-01 5.68805395e-01 3.39486985e-01
-6.48395966e-01 -7.90631660e-02 7.57186954e-01
8.19576751e-01 4.91962835e-01 -2.93711362e-01
-4.52222398e-02 -4.76006825e-01 8.78278379e-01
1.24920391e-01 3.25452334e-02 -9.91632586e-01
-7.53175482e-01 -4.04902344e-01 5.18440986e-01
7.88584649e-01 6.09478776e-01 -8.16690274e-02
4.55679128e-01 2.22439024e-01 8.61903628e-01
4.51846977e-01 8.47454298e-01 -2.78667144e-01
4.24370267e-01 3.40387690e-01 -8.39074287e-01
6.57518403e-01 6.92168440e-01 -2.97610895e-01
-2.69488306e-01 -9.42292140e-01 1.98649640e-01
5.88600629e-01 5.65576673e-01 5.77644033e-01
5.61770454e-02 -2.09633295e-01 -9.76164694e-01
-5.70770645e-01 -1.37142760e-01 -8.09575389e-01
1.00802268e-02 -9.88842725e-01 1.48622110e-01
2.56303287e-01 3.65253975e-01 8.94929398e-01
-2.42815511e-01 3.69736160e-01 -8.96847440e-01
-5.33186621e-01 1.11825772e-01 -8.38574138e-01
-5.88600629e-01 -5.65576673e-01 5.77644032e-01
8.77152071e-01 -4.61269483e-01 1.33546916e-01
-8.02293953e-01 -1.79037530e-01 5.69447340e-01
-1.96048156e-01 7.43099275e-01 -6.39818923e-01
6.48395965e-01 7.90631657e-02 7.57186954e-01
2.00697728e-01 -3.50662883e-01 9.14743922e-01
-8.96999114e-03 9.36285573e-01 -3.51124881e-01
-2.05704229e-02 -2.43301060e-01 9.69732932e-01
7.82566201e-01 -6.22217740e-01 -2.08617902e-02
8.04708616e-01 -5.43944320e-02 5.91173070e-01
1.96048157e-01 -7.43099274e-01 -6.39818923e-01
-2.24851255e-01 1.18583371e-01 9.67150662e-01
8.49332201e-01 -3.85196451e-01 3.60913695e-01
-4.35903455e-01 -4.78457097e-01 7.62277760e-01
9.08531457e-01 -2.88756099e-01 -3.01977397e-01
6.62418074e-01 5.53802249e-01 -5.04484986e-01
-8.49332201e-01 3.85196451e-01 3.60913695e-01
-6.39756437e-01 6.51357119e-01 -4.07977195e-01
-2.49380518e-01 -5.12870667e-01 -8.21445438e-01
2.44750646e-01 -9.68409610e-01 4.77490703e-02
9.56426696e-01 -4.16837902e-02 -2.88981462e-01
3.84254890e-01 -5.62931113e-01 -7.31748836e-01
9.89670221e-01 1.12726019e-01 -8.85756809e-02
4.61272090e-01 -8.27304052e-01 -3.20617993e-01
6.09229732e-01 7.89640888e-01 -7.28447878e-02
6.39756437e-01 -6.51357118e-01 -4.07977195e-01
4.88278781e-02 -9.91873301e-01 -1.17486729e-01
-4.79905882e-01 -7.26900968e-01 -4.91228125e-01
1.65203031e-01 -5.64482225e-01 8.08744829e-01
4.30891236e-01 -2.69018947e-01 8.61372161e-01
-9.08531457e-01 2.88756099e-01 -3.01977397e-01
-8.42964642e-01 1.77880812e-01 -5.07709329e-01
2.14836039e-01 9.46217583e-01 -2.41904187e-01
1.68956606e-01 9.85533278e-01 -1.33347698e-02
5.70770645e-01 1.37142761e-01 -8.09575389e-01
-5.61770449e-02 2.09633296e-01 -9.76164694e-01
9.26208047e-01 2.33592728e-01 -2.95927249e-01
-9.89670221e-01 -1.12726019e-01 -8.85756815e-02
-2.56303288e-01 -3.65253975e-01 8.94929397e-01
-1.54223793e-03 -7.04920068e-01 7.09285337e-01
-3.91068597e-01 -6.96137185e-01 6.02045419e-01
-2.40008742e-01 -1.22800564e-01 9.62972652e-01
-6.09229732e-01 -7.89640888e-01 -7.28447885e-02
-6.32802514e-01 1.66425595e-01 7.56216830e-01
-7.49138964e-01 -5.68805395e-01 3.39486984e-01
2.05704225e-02 2.43301059e-01 9.69732932e-01
-8.62820837e-02 -9.25959166e-01 3.67634624e-01
-2.65279898e-01 9.40904781e-01 -2.10534223e-01
-4.01622470e-01 -9.14818154e-01 -4.25101736e-02
8.96999125e-03 -9.36285572e-01 -3.51124882e-01
4.01622470e-01 9.14818154e-01 -4.25101729e-02
-4.31457849e-01 7.21656148e-01 -5.41346696e-01
5.33186621e-01 -1.11825772e-01 -8.38574138e-01
2.69488305e-01 9.42292140e-01 1.98649641e-01
3.52001185e-01 -8.23260554e-01 4.45350939e-01
2.23613492e-01 6.07052305e-01 7.62551575e-01
-3.84254889e-01 5.62931114e-01 -7.31748836e-01
-1.99559902e-01 -2.74567952e-01 -9.40631593e-01
-8.04708616e-01 5.43944316e-02 5.91173070e-01
9.24247467e-01 9.91860462e-02 3.68685422e-01
-3.52001185e-01 8.23260554e-01 4.45350939e-01
5.71222814e-02 6.62796280e-01 -7.46617537e-01
-9.56426696e-01 4.16837903e-02 -2.88981463e-01
4.21743787e-01 -8.84149331e-01 2.01027967e-01
4.95465551e-01 -6.41697302e-01 5.85438952e-01
6.20325163e-01 3.82000006e-01 -6.85034547e-01
8.02293953e-01 1.79037530e-01 5.69447340e-01
4.52222394e-02 4.76006824e-01 8.78278379e-01
9.12661980e-01 -1.41682690e-01 3.83372307e-01
2.24851254e-01 -1.18583371e-01 9.67150662e-01
-8.19576751e-01 -4.91962834e-01 -2.93711363e-01
5.66772984e-01 7.27510596e-01 3.86648315e-01
-2.14836039e-01 -9.46217583e-01 -2.41904188e-01
9.88784291e-01 4.45569711e-03 1.49284463e-01
1.54223749e-03 7.04920068e-01 7.09285338e-01
8.04893053e-01 3.45227327e-01 -4.82664493e-01
-7.42464004e-01 6.20074320e-01 2.53486040e-01
-4.61272090e-01 8.27304052e-01 -3.20617992e-01
-8.74051622e-01 -7.02929341e-02 -4.80720723e-01
4.79905882e-01 7.26900969e-01 -4.91228124e-01
-2.26166517e-02 -4.36340354e-01 -8.99497144e-01
3.09321307e-01 -1.45706455e-01 -9.39728400e-01
-9.88784291e-01 -4.45569710e-03 1.49284463e-01
-8.82988451e-01 -3.35444441e-01 3.28342190e-01
-4.95465552e-01 6.41697301e-01 5.85438952e-01
5.65725351e-01 -7.42155586e-01 3.59388510e-01
9.18427328e-01 -3.85909086e-01 -8.69791647e-02
-7.72536476e-01 4.24353936e-01 -4.72346148e-01
4.73732474e-01 -3.46785143e-01 -8.09516636e-01
2.64707825e-02 8.26161448e-01 -5.62811039e-01
2.30384886e-01 -8.67931056e-01 -4.40020746e-01
2.40008742e-01 1.22800563e-01 9.62972652e-01
-4.61852180e-01 -5.62254631e-01 -6.85975171e-01
1.99559902e-01 2.74567952e-01 -9.40631593e-01
-2.71041225e-01 -7.12461179e-01 -6.47252180e-01
8.74051622e-01 7.02929343e-02 -4.80720723e-01
-7.82566201e-01 6.22217740e-01 -2.08617902e-02
-1.00802270e-02 9.88842725e-01 1.48622110e-01
7.72536477e-01 -4.24353935e-01 -4.72346147e-01
1.68544414e-01 8.04522320e-01 5.69505851e-01
-4.24370267e-01 -3.40387689e-01 -8.39074287e-01
-2.51270597e-01 -8.54360405e-01 -4.54896854e-01
3.50782783e-01 8.45615028e-01 4.02351679e-01
4.61852181e-01 5.62254631e-01 -6.85975170e-01
-9.58919154e-01 2.35715843e-01 1.57835928e-01
2.49380518e-01 5.12870667e-01 -8.21445437e-01
-4.61356722e-01 8.85084577e-01 -6.14429258e-02
9.86901517e-01 -1.44945326e-01 -7.08252124e-02
8.42964643e-01 -1.77880811e-01 -5.07709329e-01
-6.57518402e-01 -6.92168440e-01 -2.97610896e-01
3.91994246e-01 -5.01125385e-01 7.71501304e-01
6.99629668e-01 7.00266938e-01 1.41931734e-01
-5.71222811e-02 -6.62796279e-01 -7.46617537e-01
-5.90962077e-01 5.21268039e-01 -6.15664790e-01
-2.00697728e-01 3.50662883e-01 9.14743922e-01
-6.42853712e-01 7.46026447e-01 -1.73734150e-01
-7.69449283e-01 2.91216323e-01 5.68455057e-01
9.58919154e-01 -2.35715843e-01 1.57835928e-01
5.90962077e-01 -5.21268039e-01 -6.15664790e-01
8.03250657e-01 -5.38332870e-01 -2.54923459e-01
2.71041225e-01 7.12461179e-01 -6.47252179e-01
-1.68956606e-01 -9.85533278e-01 -1.33347705e-02
-9.18427328e-01 3.85909086e-01 -8.69791651e-02
-4.51623745e-01 2.42713259e-02 8.91878558e-01
2.42815511e-01 -3.69736159e-01 -8.96847440e-01
-7.88584649e-01 -6.09478776e-01 -8.16690281e-02
7.42561760e-01 1.78439983e-01 -6.45570188e-01
-1.56515376e-01 5.72510756e-01 -8.04819204e-01
-4.88278781e-02 9.91873301e-01 -1.17486729e-01
6.23114847e-01 3.24490246e-01 7.11642003e-01
