-4.37345552e-01 8.99291968e-01 1.34180547e-03
-3.86526114e-01 5.54434599e-01 -7.37018789e-01
3.73245128e-01 -6.79732245e-01 6.31391242e-01
2.88897115e-01 -6.56095983e-01 -6.97190893e-01
6.16479312e-01 5.10837053e-01 -5.99165329e-01
1.03652498e-02 -9.17108124e-01 -3.98501939e-01
3.54422515e-01 1.86028369e-01 9.16396179e-01
-2.52749381e-01 -8.58067187e-03 -9.67491871e-01
-9.58277755e-01 -1.46843263e-02 2.85457518e-01
-7.04088899e-01 6.39716348e-01 3.08254402e-01
2.50015673e-02 5.97251751e-01 8.01665699e-01
-9.43262051e-01 -2.49082328e-01 2.19573102e-01
7.20349432e-01 -6.33996231e-01 2.81333052e-01
-1.11770116e-01 -9.64625805e-01 2.38756173e-01
1.77954425e-01 -4.61850982e-01 -8.68921022e-01
2.51977327e-01 -3.00082763e-02 9.67269619e-01
-6.66186702e-01 -6.01156018e-01 4.41368039e-01
-7.30883779e-01 -6.51112911e-01 2.04594717e-01
-6.61857928e-01 7.46187102e-01 -7.17419647e-02
7.98893924e-01 4.67014362e-02 -5.99656734e-01
-4.27451114e-01 -8.35495127e-01 -3.45298162e-01
-3.67266202e-01 -9.21027412e-01 1.29703382e-01
7.24365221e-01 -4.97986245e-01 4.76768465e-01
-4.08663028e-01 -9.06403764e-01 -1.06887126e-01
-4.03686203e-01 8.03642001e-01 -4.37258219e-01
8.07189762e-01 5.26271978e-01 2.67368550e-01
-5.94770666e-01 5.94448070e-01 5.41183246e-01
-7.54540145e-01 -6.54796620e-01 -4.36792396e-02
4.75137636e-01 -5.41464925e-02 8.78246200e-01
-3.55258272e-01 -4.26520855e-01 8.31788858e-01
-4.27108053e-01 -1.73015086e-01 -8.87491142e-01
-1.12522017e-01 6.19103480e-01 -7.77204787e-01
-8.85860294e-01 3.58609217e-01 -2.94359494e-01
6.17682363e-01 1.36078198e-01 -7.74564982e-01
8.78823399e-01 -3.30001085e-01 -3.44630670e-01
5.10901992e-01 5.63734414e-01 6.48988697e-01
9.95267411e-02 7.63309076e-01 6.38322897e-01
-3.15166590e-01 -8.80233312e-01 3.54766249e-01
9.16875219e-01 3.16110398e-01 2.43757445e-01
8.85600826e-01 1.89652525e-01 -4.23963031e-01
5.17671033e-02 -6.40778814e-01 -7.65976747e-01
2.31701160e-01 7.66759028e-01 -5.98660507e-01
-1.38529872e-02 7.82731662e-01 -6.22203873e-01
-9.14493874e-01 2.21505906e-01 3.38576935e-01
5.07499843e-01 7.41439526e-01 4.38992531e-01
-5.66629495e-01 -3.27270366e-01 -7.56188507e-01
-2.22465490e-01 4.31652845e-01 -8.74174951e-01
4.64519226e-01 7.01463039e-01 -5.40528995e-01
-1.80386148e-01 -2.35350846e-01 -9.55022195e-01
5.26398414e-01 -5.96370523e-01 -6.06008705e-01
-5.05823988e-02 9.75611158e-01 -2.13597414e-01
-2.16467945e-01 -8.66205500e-01 -4.50363604e-01
9.73222321e-01 8.31700434e-02 -2.14297586e-01
-4.93938166e-01 6.81214882e-02 -8.66822085e-01
4.86428676e-01 -8.73632410e-01 -1.24381207e-02
-3.15042451e-01 2.17000403e-01 -9.23934788e-01
5.12430768e-01 -2.54968858e-01 -8.20002856e-01
1.38210391e-01 6.20254694e-01 -7.72127188e-01
-2.05458378e-01 9.78588888e-01 1.22634966e-02
-3.59934678e-01 9.04208482e-01 2.29899829e-01
9.58946457e-01 -2.59034861e-01 1.15437553e-01
7.59949251e-01 1.40507062e-01 6.34617317e-01
8.94374509e-01 1.19317187e-01 4.31116802e-01
4.04520065e-01 8.76635771e-01 2.60529376e-01
7.16292874e-01 -2.98806758e-01 6.30589389e-01
-5.30882096e-01 6.36448429e-01 -5.59548529e-01
-7.55885259e-01 -2.40229382e-01 -6.09034590e-01
-8.90602059e-01 -1.20903575e-01 -4.38413318e-01
-7.36461241e-01 -1.49503424e-01 6.59752358e-01
2.34224124e-01 8.70570797e-01 4.32721431e-01
-8.60142049e-01 9.21211483e-03 5.09970232e-01
2.97730569e-01 -2.49417220e-01 -9.21491019e-01
5.33234756e-01 -2.87272487e-01 7.95700366e-01
-8.76246258e-01 -4.71944467e-01 9.72539832e-02
-9.98516645e-01 -2.64830183e-02 4.75417521e-02
3.35922472e-01 7.31306091e-01 5.93591204e-01
7.34903867e-01 -4.85911177e-01 -4.73082807e-01
6.54489946e-01 3.64008736e-01 6.62679882e-01
-9.31175605e-01 -2.64817988e-01 -2.50558849e-01
6.12624694e-01 -6.85496095e-01 -3.93429260e-01
-5.84024899e-01 -8.10169563e-01 5.03811614e-02
6.54450392e-01 7.43431312e-01 -1.37863857e-01
-5.89573691e-01 7.91379382e-01 1.61618296e-01
1.55312612e-01 2.11866995e-01 -9.64877250e-01
-3.91583088e-01 -1.98209506e-01 8.98541609e-01
2.89930175e-01 9.55144230e-01 6.03440041e-02
-2.44534803e-01 -7.90540631e-01 5.61470254e-01
1.55073967e-01 -8.09436277e-01 -5.66359883e-01
4.21819742e-01 8.96692778e-01 -1.34206520e-01
6.63589001e-01 -7.30476354e-01 -1.61416379e-01
-7.45855884e-01 5.00272579e-01 -4.39798757e-01
6.74595608e-01 -1.06374826e-01 -7.30482764e-01
-4.80973682e-01 3.40417010e-01 -8.07946075e-01
-5.63213743e-01 -6.77802515e-01 -4.72621074e-01
3.92143286e-01 1.98301107e-01 -8.98275554e-01
-4.68876196e-01 -7.17044367e-01 5.15754106e-01
-4.52398979e-01 4.93839003e-01 7.42602957e-01
-6.61064534e-01 1.86585657e-01 -7.26756759e-01
8.20051265e-01 -5.72174245e-01 1.16151160e-02
3.74146000e-02 9.99071840e-01 2.13573590e-02
-8.21878037e-02 2.18855744e-01 -9.72288186e-01
7.59530817e-01 6.48415671e-01 5.16988602e-02
-9.09699653e-01 4.13703979e-01 -3.59555722e-02
-1.62007592e-01 -9.86777283e-01 4.82708647e-03
5.55116453e-01 -6.86602636e-01 4.69494811e-01
3.04351534e-01 8.71285380e-01 -3.85009157e-01
-9.39622845e-03 -1.49897042e-02 -9.99842022e-01
9.20158305e-01 -3.82001482e-01 -8.59418791e-02
-9.16664140e-01 1.22413038e-01 -3.80444499e-01
-1.48511189e-01 -3.29782810e-01 9.32303529e-01
1.89856620e-01 9.64913367e-01 -1.81375449e-01
9.67946339e-01 -1.69485119e-01 -1.85356563e-01
1.97216652e-01 4.07112170e-01 8.91834416e-01
7.99284334e-01 -2.28666290e-01 -5.55749078e-01
-4.76687742e-02 -7.27441263e-01 6.84513323e-01
3.14391295e-01 -2.64497127e-01 9.11703305e-01
-8.75912993e-01 4.32712951e-01 2.13387002e-01
-9.64998398e-01 -2.61783554e-01 -1.56319129e-02
-5.00375385e-01 8.37191398e-01 -2.20755860e-01
4.63009630e-01 -8.48107727e-01 -2.57557253e-01
-6.44214194e-01 -8.43799671e-02 -7.60173575e-01
1.39717261e-01 -9.35611371e-01 3.24209029e-01
6.45976645e-01 7.19692407e-01 2.54479856e-01
-1.41103029e-01 7.48988892e-01 6.47384965e-01
-7.31726172e-02 -4.51267109e-01 -8.89382249e-01
6.67377747e-01 -7.40760339e-01 7.67012228e-02
2.74406191e-01 5.83286907e-01 7.64513510e-01
-6.07710022e-01 -7.67726308e-01 -2.03179996e-01
-3.50387921e-01 -7.26750701e-01 -5.90811869e-01
-9.71824968e-01 2.09228522e-01 1.08522156e-01
1.27016286e-01 9.61284439e-01 2.44541476e-01
-2.82594630e-01 9.32877685e-01 -2.23334520e-01
-4.62043389e-01 -5.46212154e-01 -6.98687725e-01
-9.89854959e-02 -5.42977127e-01 8.33894267e-01
1.17947075e-01 -4.41880571e-01 8.89287833e-01
-1.21309564e-01 9.62343984e-01 2.43266772e-01
2.73208162e-01 -9.57539417e-01 -9.20641044e-02
-1.56892811e-01 1.77666213e-01 9.71504903e-01
-5.41497686e-01 -7.88847201e-01 2.90687553e-01
5.19842390e-01 3.67874049e-01 -7.70994199e-01
3.50011754e-01 -8.37310666e-01 4.20005507e-01
9.10572620e-01 -6.92842254e-02 -4.07503114e-01
-8.00112689e-01 2.75728532e-01 -5.32719010e-01
5.18605025e-01 7.90305900e-01 -3.26291794e-01
-9.79884633e-01 -3.85671643e-02 -1.95793465e-01
-6.46636309e-01 3.80404194e-01 6.61176381e-01
-6.36560879e-02 4.00092141e-01 9.14262979e-01
-3.05857102e-01 -6.24943861e-01 7.18260076e-01
-7.99231153e-01 5.70876906e-01 -1.87952963e-01
2.41458963e-01 -9.10699888e-01 -3.35145829e-01
-4.96674054e-01 7.71753571e-01 3.97128711e-01
-5.05213262e-02 -8.85284302e-01 4.62298800e-01
-7.99005130e-01 2.95711307e-02 -6.00593166e-01
3.58422959e-01 -4.81004660e-01 8.00106721e-01
5.21257828e-01 -8.14864135e-01 2.53552309e-01
6.31648474e-02 -2.46287999e-01 -9.67134794e-01
5.45580447e-01 8.35429641e-01 6.63434786e-02
-5.25758727e-01 2.36156186e-01 8.17195734e-01
9.75084502e-01 8.77578103e-02 2.03745932e-01
-8.29927286e-02 -7.75847421e-01 -6.25436353e-01
-8.65102462e-01 -2.24235744e-01 4.48680989e-01
-6.39980831e-01 6.88199294e-01 -3.41765337e-01
3.82612884e-01 5.75232848e-01 -7.22989504e-01
8.65715940e-01 -4.51502941e-01 2.16065125e-01
1.62658173e-01 -6.34915092e-01 7.55266591e-01
-5.33503151e-01 -5.27267957e-01 6.61334251e-01
4.64336147e-01 -2.89377103e-02 -8.85185510e-01
-8.20207761e-01 -3.89924065e-01 -4.18586396e-01
1.35007092e-02 -1.02153207e-03 9.99909819e-01
-7.34651993e-01 -5.97627823e-01 -3.21129298e-01
-9.72350497e-01 1.91545806e-01 -1.33571717e-01
-2.12625468e-01 -6.09183697e-01 -7.63991188e-01
-1.67579173e-01 8.82027700e-01 -4.40389450e-01
8.56913842e-01 -3.11486000e-01 4.10705324e-01
3.21147469e-01 -9.32844214e-01 1.63300673e-01
4.08078245e-01 -4.67135727e-01 -7.84382025e-01
8.00904367e-01 -5.47589047e-01 -2.42280818e-01
-7.23210202e-01 -3.90738517e-01 5.69464410e-01
8.33830985e-01 -9.34276303e-02 5.44060001e-01
-2.22734087e-01 5.65982774e-01 7.93759949e-01
6.80321855e-01 5.59003468e-01 4.74005242e-01
5.57939691e-01 -5.04008649e-01 6.59304212e-01
8.10598531e-01 3.48334262e-01 4.70741175e-01
-7.00686744e-01 1.02195114e-01 7.06112021e-01
-3.14474340e-01 3.43980402e-01 8.84751438e-01
-2.68490943e-01 7.33194444e-01 -6.24768863e-01
9.98840195e-01 -4.66924960e-02 1.18813094e-02
9.17570689e-01 3.34058414e-01 -2.15572070e-01
7.29364479e-01 2.89295653e-01 -6.19948400e-01
8.94854598e-01 4.45581189e-01 2.63749819e-02
-8.66691630e-01 -4.74466990e-01 -1.54024058e-01
2.82648152e-02 4.34304233e-01 -9.00321358e-01
7.35799566e-02 9.04155919e-01 -4.20817517e-01
4.43258024e-01 3.86207115e-01 8.08931547e-01
3.93200910e-01 -7.76814845e-01 -4.91885395e-01
-7.87746226e-01 6.11200459e-01 7.67326472e-02
-5.73678735e-01 -3.04239083e-01 7.60481187e-01
6.79333244e-01 6.23646166e-01 -3.86746667e-01
-7.77471246e-01 4.53151828e-01 4.36108844e-01
-3.76320976e-01 7.79319860e-02 9.23206744e-01
6.41164863e-01 -3.81777910e-01 -6.65697484e-01
-5.64014922e-01 -4.77715878e-02 8.24382009e-01
5.75428415e-01 1.63476603e-01 8.01349927e-01
8.62990327e-02 -9.92826053e-01 8.27590513e-02
6.91080359e-02 -2.28181896e-01 9.71164284e-01
6.72762410e-01 -7.24648811e-02 7.36304130e-01
-1.98336439e-01 -9.18288674e-02 9.75823919e-01
-8.28015701e-01 -4.47520617e-01 3.37807011e-01
8.11796738e-01 5.52670384e-01 -1.88530222e-01
-3.77633109e-01 6.93984065e-01 6.13009155e-01
-1.80488818e-02 8.89356233e-01 4.56860285e-01
-3.31074939e-01 -4.03944629e-01 -8.52768710e-01
-6.63065623e-01 -4.80858981e-01 -5.73685225e-01
1.60943290e-01 -8.08713312e-01 5.65757807e-01
9.43100036e-01 -1.18656557e-01 3.10623097e-01
9.76108667e-01 2.17247071e-01 -4.31826953e-03
4.04573583e-02 -9.85841556e-01 -1.62723479e-01
2.73849156e-01 4.15692504e-01 -8.67297435e-01
2.32489636e-01 -1.89393594e-02 -9.72413359e-01
8.01919999e-01 4.21195009e-01 -4.23698548e-01
-2.61297316e-01 8.54009031e-01 4.49881205e-01
-8.02753409e-01 2.42026037e-01 5.44985842e-01
-2.00609650e-01 -9.52755735e-01 -2.28058455e-01
1.07935581e-01 2.10598587e-01 9.71597337e-01
-6.29814471e-01 4.32278603e-01 -6.45341207e-01
