-8.45127308e-01 1.09322065e-02 5.34455527e-01
-1.71193716e-01 -8.66719970e-01 4.68498985e-01
1.32003297e-01 7.86930311e-01 -6.02754610e-01
-1.59242291e-02 -4.23279102e-01 9.05861618e-01
-6.43071622e-01 -1.82444483e-01 -7.43753706e-01
7.28620039e-01 5.96204753e-01 3.37126443e-01
2.51163419e-02 9.13743491e-01 -4.05512255e-01
7.73813987e-01 -6.31902778e-01 -4.37103698e-02
-4.70250178e-01 6.70455536e-01 5.73896080e-01
7.20202124e-02 2.13624276e-01 -9.74255306e-01
-2.51163420e-02 -9.13743491e-01 -4.05512255e-01
-1.17303659e-01 3.66094357e-02 -9.92418845e-01
-2.52120784e-01 6.68102168e-01 7.00055521e-01
-6.55407874e-01 6.37062060e-01 4.05702187e-01
-4.94535472e-01 6.91879406e-02 8.66401506e-01
-4.56573048e-01 -2.91062501e-01 -8.40725826e-01
3.86411605e-01 -9.05742968e-01 -1.74111943e-01
5.02338444e-01 7.78154295e-01 -3.77001719e-01
-9.72712046e-01 1.93830613e-01 1.27520743e-01
6.88751379e-01 -3.87880499e-02 7.23961506e-01
7.02775073e-01 6.28377896e-01 -3.33536992e-01
-1.15567730e-01 9.69566588e-01 -2.15832729e-01
1.66458048e-02 -6.55408980e-01 -7.55088478e-01
-2.20068003e-01 4.88291369e-01 -8.44474889e-01
1.96521690e-02 4.52924647e-01 -8.91329946e-01
-6.80592861e-02 9.09747425e-01 4.09547785e-01
-1.32003297e-01 -7.86930311e-01 -6.02754610e-01
3.48622350e-01 -1.28223775e-01 -9.28448690e-01
-5.02338444e-01 -7.78154295e-01 -3.77001719e-01
-7.71173724e-01 4.48865804e-01 -4.51451612e-01
3.67161317e-01 7.15851855e-01 -5.93924266e-01
-4.90611503e-01 7.98361795e-01 3.49170958e-01
1.17070572e-01 -2.41174929e-01 9.63396825e-01
9.71099942e-01 2.01929080e-01 -1.27235927e-01
1.37190307e-01 9.61116160e-01 2.39657293e-01
2.38554498e-01 -9.71127604e-01 -1.70871195e-03
1.17303659e-01 -3.66094357e-02 -9.92418845e-01
-5.89834615e-01 1.93671287e-01 -7.83953477e-01
7.56320107e-01 -2.46215611e-01 6.06102696e-01
-6.35915995e-01 7.56480455e-01 1.52803312e-01
-1.98169917e-01 -7.20496276e-01 6.64542528e-01
-9.00691606e-01 2.42779226e-01 -3.60293308e-01
-1.96521691e-02 -4.52924647e-01 -8.91329946e-01
4.90611503e-01 -7.98361795e-01 3.49170958e-01
7.71173724e-01 -4.48865804e-01 -4.51451612e-01
6.55407874e-01 -6.37062060e-01 4.05702187e-01
1.99333602e-01 2.85969306e-01 9.37278967e-01
6.35915995e-01 -7.56480455e-01 1.52803311e-01
-3.59017434e-01 2.77981061e-01 8.90975305e-01
-2.81370469e-01 8.16550741e-01 5.04061306e-01
-4.51553774e-01 8.88432042e-01 8.23897128e-02
2.13756770e-01 6.01965044e-01 -7.69378119e-01
3.94296931e-01 7.65969844e-01 5.07762148e-01
7.83129647e-01 -4.34289804e-01 4.45086860e-01
8.90846266e-01 1.93855980e-01 4.10870572e-01
9.09387699e-01 2.11420465e-01 -3.58209155e-01
2.86070134e-02 9.99405467e-01 -1.92422696e-02
-2.12917553e-01 4.73333443e-01 8.54766277e-01
-5.91082390e-01 -6.08415040e-01 5.29580130e-01
-2.99889002e-01 -1.27873731e-01 -9.45362718e-01
8.17013699e-01 5.63640244e-01 1.21650461e-01
-2.64281426e-01 -9.63992055e-01 2.95766317e-02
-3.94296931e-01 -7.65969844e-01 5.07762148e-01
-7.28620039e-01 -5.96204753e-01 3.37126443e-01
-1.62865801e-01 -9.63319661e-01 -2.13281521e-01
-7.20202126e-02 -2.13624276e-01 -9.74255306e-01
-5.80412999e-01 -6.07273085e-01 -5.42529010e-01
5.76771699e-01 -2.80148213e-01 7.67368762e-01
-1.63073890e-01 2.79027700e-01 -9.46333038e-01
6.02541819e-01 -6.12673103e-01 -5.11441824e-01
5.11945492e-01 2.45620436e-02 -8.58664475e-01
-9.99999083e-01 -4.33500889e-04 1.28494434e-03
4.16624425e-01 3.73432663e-01 8.28840057e-01
-1.17070572e-01 2.41174929e-01 9.63396825e-01
-3.48622350e-01 1.28223775e-01 -9.28448690e-01
5.57627535e-01 7.67305038e-01 3.16695321e-01
-7.81575892e-01 2.35310629e-01 -5.77724372e-01
-6.01109050e-01 7.93174947e-01 -9.76779220e-02
-8.70986537e-01 -4.27342588e-01 -2.42403962e-01
3.59017434e-01 -2.77981062e-01 8.90975305e-01
-2.38554498e-01 9.71127604e-01 -1.70871182e-03
-7.13620417e-01 6.40415908e-01 -2.83922695e-01
2.99889002e-01 1.27873731e-01 -9.45362718e-01
-3.77612421e-01 -1.39283835e-01 9.15430481e-01
-7.85322847e-01 5.85111975e-01 2.02269391e-01
9.72712046e-01 -1.93830613e-01 1.27520743e-01
2.52120784e-01 -6.68102168e-01 7.00055521e-01
-4.15954779e-01 3.45755970e-01 -8.41088979e-01
9.99999083e-01 4.33500925e-04 1.28494423e-03
-3.95387846e-01 7.48614872e-01 -5.32204703e-01
4.51553774e-01 -8.88432042e-01 8.23897127e-02
7.98885239e-01 2.05972441e-01 -5.65115211e-01
-6.93004566e-02 -9.44283713e-02 9.93118910e-01
-2.13756770e-01 -6.01965043e-01 -7.69378119e-01
-6.05644387e-01 -7.82244863e-01 -1.45901332e-01
-8.94918047e-01 1.99255812e-01 3.99275087e-01
9.60327173e-01 3.04858318e-04 2.78877884e-01
2.77506659e-01 8.67433253e-01 -4.12974285e-01
-6.30611910e-01 4.01525993e-01 -6.64155499e-01
9.67742931e-01 -1.88611187e-02 -2.51230482e-01
9.00691606e-01 -2.42779226e-01 -3.60293308e-01
-5.11945492e-01 -2.45620435e-02 -8.58664475e-01
-8.17013699e-01 -5.63640244e-01 1.21650461e-01
6.01109050e-01 -7.93174947e-01 -9.76779221e-02
2.62860919e-01 -8.85355640e-01 -3.83468140e-01
4.78461974e-01 8.75623387e-01 6.60160444e-02
-3.57434067e-01 -8.89842329e-01 2.83589113e-01
2.81370469e-01 -8.16550741e-01 5.04061306e-01
8.94918048e-01 -1.99255812e-01 3.99275087e-01
-6.64774486e-01 -7.40700684e-01 9.71484129e-02
-4.16624425e-01 -3.73432663e-01 8.28840057e-01
-6.25218479e-01 4.77900064e-01 6.17021994e-01
-5.76771699e-01 2.80148213e-01 7.67368762e-01
-7.02775073e-01 -6.28377896e-01 -3.33536992e-01
-3.96318879e-01 -9.00144052e-01 -1.80751831e-01
2.20068003e-01 -4.88291369e-01 -8.44474889e-01
-9.09387699e-01 -2.11420464e-01 -3.58209155e-01
-6.02541819e-01 6.12673103e-01 -5.11441824e-01
-2.53012462e-01 5.41848744e-02 9.65946692e-01
-4.16916699e-01 -5.89636808e-01 6.91745613e-01
-9.02766245e-01 4.30040801e-01 8.83491133e-03
-8.92366579e-01 3.80628248e-01 2.42497648e-01
7.53766986e-01 1.99806679e-01 6.26031485e-01
8.92366579e-01 -3.80628248e-01 2.42497648e-01
-4.30977556e-01 4.91443558e-01 7.56799154e-01
1.59242290e-02 4.23279102e-01 9.05861618e-01
-7.75064491e-01 -4.31014927e-01 -4.62059631e-01
4.32540100e-01 5.16051241e-01 -7.39321901e-01
-9.67742931e-01 1.88611187e-02 -2.51230482e-01
-8.90846265e-01 -1.93855980e-01 4.10870572e-01
3.95387846e-01 -7.48614872e-01 -5.32204703e-01
-4.32540101e-01 -5.16051241e-01 -7.39321901e-01
-2.20902491e-01 -5.26357805e-01 8.21068341e-01
6.07166037e-01 4.07470242e-01 6.82144014e-01
-9.19109870e-01 -3.93997014e-01 -1.84158778e-03
7.31698482e-01 -2.73551312e-02 -6.81077076e-01
1.98169917e-01 7.20496276e-01 6.64542528e-01
-5.57627535e-01 -7.67305038e-01 3.16695321e-01
-7.53766986e-01 -1.99806679e-01 6.26031485e-01
-1.66458049e-02 6.55408980e-01 -7.55088478e-01
2.53012462e-01 -5.41848747e-02 9.65946692e-01
-7.56320107e-01 2.46215611e-01 6.06102696e-01
9.65540063e-01 -2.29954253e-01 -1.21872403e-01
1.17087821e-01 -8.16600430e-01 -5.65200543e-01
-6.34444516e-01 -4.03921161e-01 -6.59033311e-01
-2.62860919e-01 8.85355640e-01 -3.83468139e-01
-7.31698482e-01 2.73551313e-02 -6.81077076e-01
4.51527576e-01 -5.48031651e-01 -7.04117185e-01
-3.67161317e-01 -7.15851855e-01 -5.93924266e-01
4.16916699e-01 5.89636808e-01 6.91745613e-01
-8.63180100e-01 4.51840037e-01 -2.25299108e-01
9.69301594e-01 1.99196537e-01 1.44138144e-01
3.57434067e-01 8.89842329e-01 2.83589113e-01
-4.51527576e-01 5.48031651e-01 -7.04117185e-01
1.38910795e-02 -6.27813912e-01 7.78241742e-01
4.30977556e-01 -4.91443558e-01 7.56799154e-01
-2.45956939e-01 -3.82661652e-01 -8.90545486e-01
-1.99333601e-01 -2.85969306e-01 9.37278967e-01
3.96318879e-01 9.00144052e-01 -1.80751831e-01
-9.69301594e-01 -1.99196537e-01 1.44138144e-01
7.66341924e-01 4.09030027e-01 4.95395506e-01
4.70250178e-01 -6.70455536e-01 5.73896079e-01
9.21579506e-02 -9.78675953e-01 1.83578626e-01
-7.98885239e-01 -2.05972441e-01 -5.65115210e-01
8.70986537e-01 4.27342588e-01 -2.42403962e-01
6.93004571e-02 9.44283718e-02 9.93118910e-01
6.80592861e-02 -9.09747425e-01 4.09547785e-01
5.21903716e-01 -7.84971274e-01 -3.33818991e-01
1.71193716e-01 8.66719970e-01 4.68498985e-01
2.64281426e-01 9.63992055e-01 2.95766317e-02
-9.65540063e-01 2.29954253e-01 -1.21872403e-01
8.78184884e-01 -1.79748660e-02 -4.77981252e-01
-1.17087821e-01 8.16600430e-01 -5.65200543e-01
-5.21903716e-01 7.84971274e-01 -3.33818991e-01
-7.82768153e-01 -6.12568542e-01 -1.09696444e-01
-6.88751379e-01 3.87880499e-02 7.23961506e-01
-1.38910795e-02 6.27813912e-01 7.78241742e-01
5.89834615e-01 -1.93671287e-01 -7.83953477e-01
7.85322847e-01 -5.85111975e-01 2.02269391e-01
-9.60327173e-01 -3.04858321e-04 2.78877884e-01
6.05644387e-01 7.82244863e-01 -1.45901332e-01
-2.77506659e-01 -8.67433253e-01 -4.12974285e-01
-8.78184884e-01 1.79748660e-02 -4.77981252e-01
6.43071622e-01 1.82444483e-01 -7.43753706e-01
7.82768153e-01 6.12568542e-01 -1.09696444e-01
4.94535472e-01 -6.91879407e-02 8.66401506e-01
2.20902491e-01 5.26357805e-01 8.21068341e-01
6.25218479e-01 -4.77900064e-01 6.17021994e-01
8.45127308e-01 -1.09322065e-02 5.34455527e-01
-4.78461974e-01 -8.75623388e-01 6.60160444e-02
-4.21048092e-02 7.91200004e-01 6.10108569e-01
-3.86411605e-01 9.05742968e-01 -1.74111943e-01
6.34444516e-01 4.03921161e-01 -6.59033311e-01
2.12917553e-01 -4.73333443e-01 8.54766277e-01
-8.80920664e-01 -3.86908169e-01 2.72547375e-01
9.02766245e-01 -4.30040801e-01 8.83491125e-03
-1.37190307e-01 -9.61116160e-01 2.39657293e-01
6.64774486e-01 7.40700684e-01 9.71484128e-02
-5.82563120e-01 -1.76590675e-01 7.93372228e-01
9.19109870e-01 3.93997014e-01 -1.84158786e-03
4.21048092e-02 -7.91200004e-01 6.10108569e-01
3.77612421e-01 1.39283835e-01 9.15430481e-01
2.47449325e-01 -6.71578676e-01 -6.98389427e-01
-2.47449325e-01 6.71578676e-01 -6.98389427e-01
-9.71099942e-01 -2.01929080e-01 -1.27235927e-01
8.80920664e-01 3.86908169e-01 2.72547375e-01
4.15954778e-01 -3.45755970e-01 -8.41088980e-01
1.15567730e-01 -9.69566588e-01 -2.15832729e-01
5.91082390e-01 6.08415040e-01 5.29580130e-01
-3.00887770e-01 9.13823551e-01 2.72753160e-01
-2.86070134e-02 -9.99405467e-01 -1.92422696e-02
3.00887770e-01 -9.13823551e-01 2.72753160e-01
-7.66341924e-01 -4.09030027e-01 4.95395506e-01
7.75064491e-01 4.31014927e-01 -4.62059631e-01
5.82563120e-01 1.76590675e-01 7.93372228e-01
-7.73813987e-01 6.31902778e-01 -4.37103696e-02
5.80412999e-01 6.07273085e-01 -5.42529010e-01
-9.21579506e-02 9.78675953e-01 1.83578626e-01
7.13620417e-01 -6.40415908e-01 -2.83922695e-01
2.45956939e-01 3.82661652e-01 -8.90545486e-01
6.30611910e-01 -4.01525993e-01 -6.64155499e-01
-7.83129647e-01 4.34289804e-01 4.45086860e-01
-6.07166037e-01 -4.07470242e-01 6.82144014e-01
1.63073890e-01 -2.79027700e-01 -9.46333038e-01
8.63180100e-01 -4.51840037e-01 -2.25299108e-01
7.81575892e-01 -2.35310629e-01 -5.77724372e-01
1.62865801e-01 9.63319661e-01 -2.13281521e-01
4.56573048e-01 2.91062501e-01 -8.40725826e-01
