-1.62755690e-02 9.99743859e-01 -1.57528366e-02
3.93231944e-02 -5.87235983e-01 -8.08459082e-01
3.96903344e-02 5.81125456e-01 -8.12845192e-01
-3.12408975e-01 9.17052453e-01 2.47825364e-01
7.52709955e-01 -2.31262973e-01 6.16395434e-01
-7.66508704e-01 5.14722435e-01 3.84094319e-01
-7.91978923e-02 -2.25406157e-01 -9.71040026e-01
5.52382052e-01 -7.80669578e-01 -2.92277967e-01
8.56176055e-01 -4.83545246e-01 -1.82053035e-01
3.49261320e-01 7.83394066e-01 -5.14110133e-01
-8.26960627e-01 2.88312251e-02 5.61523025e-01
-4.40320926e-01 -6.33627663e-01 -6.36108179e-01
4.26388804e-02 9.65635018e-01 -2.56381136e-01
-6.57379079e-01 6.85611627e-03 -7.53529655e-01
5.18360916e-01 5.55595324e-01 6.50088732e-01
-4.81468248e-01 -5.90060550e-01 6.48088442e-01
3.62890717e-01 -7.85674004e-01 -5.01023322e-01
8.06342954e-01 4.56491966e-01 3.76064365e-01
-8.35081014e-02 9.72465644e-01 2.17573546e-01
-9.05699222e-01 3.52943550e-01 2.34825745e-01
-7.22980942e-01 2.10571142e-01 6.57998106e-01
-9.96357676e-01 -5.46525417e-02 -6.54787024e-02
-2.44568250e-01 -6.50023841e-01 7.19483445e-01
-1.43284734e-01 -4.69133936e-01 8.71426352e-01
-5.57365900e-01 -2.98332639e-01 7.74818208e-01
2.30646935e-01 -6.05985476e-01 7.61303652e-01
-9.70829620e-01 1.80028131e-01 -1.58375196e-01
7.08665754e-01 -6.94938727e-01 -1.21861075e-01
1.87363598e-01 -1.36459287e-01 -9.72765110e-01
5.23900329e-01 7.92359379e-01 3.12561058e-01
1.42462767e-01 -8.64045662e-01 -4.82833077e-01
-2.09678696e-01 -6.36175086e-01 -7.42506171e-01
-5.30499025e-01 2.08337444e-01 -8.21685575e-01
-2.35330443e-01 -3.73469542e-02 9.71198528e-01
6.99870756e-01 4.01436998e-01 5.90785977e-01
-9.05872540e-01 -3.19623510e-01 2.77918382e-01
7.82444132e-01 6.22124044e-01 -2.72192567e-02
-9.84094848e-01 1.54169212e-01 8.82749357e-02
4.15408146e-01 -8.96004563e-01 1.56875961e-01
-3.80779788e-01 -9.20709902e-01 -8.54422773e-02
-1.67879479e-01 1.99329169e-01 9.65446078e-01
5.08997931e-01 -8.57790655e-01 -7.15118964e-02
-8.65286704e-01 -4.93170278e-01 -8.98008418e-02
8.58459824e-01 1.23316861e-01 -4.97831852e-01
-6.59874399e-01 -4.36178175e-01 6.11814326e-01
-4.01688396e-01 1.40615519e-01 9.04917724e-01
2.08924312e-01 -7.03676146e-01 -6.79108636e-01
-8.85211955e-02 4.28302541e-01 8.99290031e-01
-6.05293268e-01 -6.50839862e-01 4.58289658e-01
3.87314658e-01 4.11482767e-03 -9.21937192e-01
2.70552886e-01 6.44123271e-01 7.15476642e-01
-6.73456548e-01 7.39130432e-01 1.20490054e-02
-3.43138990e-01 7.23722700e-01 5.98734836e-01
-1.40167704e-01 -4.43068340e-01 -8.85461771e-01
3.84960133e-01 -7.27166640e-01 5.68360129e-01
-9.36801720e-01 1.20204584e-01 3.28567760e-01
-6.42174092e-01 -5.93258338e-01 -4.85446141e-01
-2.97960787e-01 -2.66304246e-01 9.16680513e-01
1.09792145e-01 -9.59636675e-01 -2.58924195e-01
3.77169190e-02 9.08780751e-01 4.15567148e-01
5.44513569e-01 -2.91605969e-01 7.86428568e-01
-3.27474085e-01 -8.88706597e-01 -3.20875765e-01
1.19434494e-01 8.64298493e-01 -4.88593169e-01
9.34255126e-01 2.61928262e-02 3.55638599e-01
7.05737288e-01 1.57910316e-01 6.90650362e-01
9.89975763e-01 6.53768653e-02 1.25183747e-01
4.47394155e-01 8.90094305e-01 -8.70047147e-02
6.37796530e-01 -7.62025009e-01 1.11941986e-01
4.11505115e-01 7.41323552e-01 5.30191324e-01
-1.20018385e-01 8.92707763e-01 -4.34360487e-01
-8.06478748e-01 -2.77991277e-01 5.21838817e-01
3.71246270e-01 4.55167735e-01 8.09319875e-01
-7.17337789e-01 -6.45688939e-01 -2.61751241e-01
-9.11685061e-02 -8.95950209e-01 -4.34695992e-01
7.22680325e-01 6.52751188e-01 2.27261005e-01
5.23321099e-01 3.86373019e-01 -7.59505592e-01
1.09139043e-01 -3.67586332e-01 -9.23562281e-01
-7.26666750e-01 -6.86749099e-01 -1.82428418e-02
-1.41618630e-01 4.31147331e-01 -8.91098156e-01
-8.36824821e-01 2.90134783e-01 4.64272960e-01
-4.67925273e-01 -1.03238497e-01 8.77718697e-01
9.28425047e-01 2.65003087e-01 2.60380328e-01
-6.13660860e-01 7.57470227e-01 -2.22848524e-01
-7.04076598e-02 2.21371542e-01 -9.72644181e-01
6.42117878e-01 -4.39129438e-01 6.28369580e-01
9.89914053e-01 -1.27811572e-01 -6.10829141e-02
6.37074096e-01 6.22655679e-01 4.54351768e-01
-4.98385021e-01 -7.60783740e-01 -4.15717389e-01
1.50558035e-01 -7.82098538e-01 6.04693099e-01
-5.50184781e-01 -8.31588659e-01 7.58824108e-02
-6.87800791e-01 -6.88754284e-01 2.29236679e-01
-8.13570318e-01 5.63554507e-01 1.43222883e-01
-7.76087990e-01 -4.95605521e-01 3.89955197e-01
-8.70456020e-02 7.72156246e-01 6.29443714e-01
7.31878959e-01 -5.85480739e-01 -3.48657940e-01
-8.42305518e-01 -5.18547138e-01 1.47080422e-01
3.23457141e-02 6.30521814e-01 7.75498079e-01
-3.82402673e-01 -4.53684363e-01 8.04947468e-01
-4.55566986e-01 5.34722114e-01 7.11711756e-01
7.84460050e-01 -4.37534930e-01 4.39526248e-01
2.95875975e-01 -8.69991526e-01 3.94424876e-01
-6.13434471e-01 5.34087795e-02 7.87939393e-01
-2.75281002e-01 -7.88256254e-01 -5.50338129e-01
7.14094514e-01 2.52459642e-01 -6.52939815e-01
-2.02471342e-01 8.69247221e-01 4.51017134e-01
1.75832464e-01 -2.07798788e-01 9.62238525e-01
-1.03238372e-01 -8.03582719e-01 5.86171470e-01
-5.94884869e-01 3.96971822e-01 -6.98946882e-01
-3.07233684e-02 -7.66559588e-01 -6.41436853e-01
-4.31806406e-01 6.09297892e-01 -6.65056679e-01
-7.51798270e-01 -3.91263322e-01 -5.30767182e-01
-3.10118827e-01 2.19365790e-01 -9.25043275e-01
-5.77419571e-01 6.36759189e-01 5.11006117e-01
-9.11076980e-01 -1.09675767e-01 3.97382881e-01
4.48397178e-01 -5.38675226e-01 7.13279714e-01
-4.08765340e-03 -6.48465534e-01 7.61233272e-01
-4.07580708e-02 7.63718639e-01 -6.44261307e-01
-2.05137843e-01 6.23011310e-01 -7.54834855e-01
2.00743003e-01 7.01561305e-01 -6.83749331e-01
5.25230650e-02 -9.05601073e-01 4.20865314e-01
-1.78012033e-01 -9.83831183e-01 1.96903815e-02
9.30958313e-01 -2.58132258e-01 -2.58226580e-01
-8.36623919e-01 -4.45137864e-01 -3.19240641e-01
8.56022724e-01 -1.34396407e-01 -4.99158665e-01
-5.96214812e-02 -9.73070828e-01 2.22661408e-01
-8.76710540e-01 -2.08977377e-01 -4.33254147e-01
3.88738508e-01 9.09480840e-01 1.47399646e-01
2.21670427e-01 9.73646684e-01 -5.36132719e-02
-4.84226984e-01 -8.12002003e-01 3.25849965e-01
2.86607500e-01 8.80481410e-01 3.77635888e-01
-1.93263843e-01 9.60403445e-01 -2.00687446e-01
-9.45373402e-01 -2.59847197e-01 -1.96852925e-01
-3.39256229e-01 -9.23353417e-01 1.79789315e-01
-6.66584864e-01 4.38430001e-01 6.02865535e-01
1.55611454e-01 9.70151092e-01 1.85990410e-01
-5.06212779e-01 8.52688530e-01 1.29125096e-01
-4.57904548e-01 7.98577170e-01 3.90641046e-01
5.22512041e-01 -7.83303347e-01 3.36771679e-01
5.83908683e-01 6.69870680e-01 -4.58608902e-01
8.87201338e-01 -2.13631365e-01 4.08941265e-01
4.95145528e-01 9.19456231e-02 8.63930793e-01
2.85168060e-03 -8.22455693e-03 9.99962666e-01
6.42185860e-01 -6.80824606e-02 7.63518767e-01
-7.40756471e-01 5.86474063e-01 -3.27613226e-01
4.80004207e-01 8.19332344e-01 -3.13511214e-01
-9.25138943e-01 3.79563002e-01 -7.28242866e-03
-8.84639674e-01 3.90311605e-01 -2.55092674e-01
2.43790155e-01 2.94224848e-02 9.69381779e-01
9.49211243e-01 -2.01580691e-02 -3.13987818e-01
-3.21637457e-01 3.82527390e-01 8.66154964e-01
9.88258218e-01 1.02769754e-01 -1.13052890e-01
9.26195231e-01 2.46049603e-01 -2.85690362e-01
1.47240201e-01 4.46641389e-01 8.82514977e-01
3.28172602e-01 -3.80262814e-01 8.64697973e-01
2.87778191e-01 -9.56299735e-01 -5.16992703e-02
8.78485288e-01 4.48902870e-01 -1.63545881e-01
4.10747662e-01 -1.33647901e-01 9.01900343e-01
-5.78862639e-01 -4.35162120e-01 -6.89603256e-01
-7.84686300e-01 3.83584697e-01 -4.86962409e-01
-7.10345025e-01 -1.40596399e-01 6.89670552e-01
3.17696722e-01 2.47642323e-01 9.15282641e-01
4.43861289e-01 6.06101704e-01 -6.60019880e-01
-5.37490320e-01 3.08587100e-01 7.84780833e-01
1.87994146e-01 1.38891893e-01 -9.72299170e-01
3.39074587e-01 -8.96679708e-01 -2.84590649e-01
8.15956557e-01 -5.75342041e-01 5.65110692e-02
-1.28390640e-03 -1.95632833e-03 -9.99996701e-01
-3.72371157e-01 -4.54438858e-01 -8.09212537e-01
6.56060953e-01 4.83200337e-01 -5.79740592e-01
-5.35781883e-01 -2.31518209e-01 -8.11996096e-01
-2.17487289e-01 -8.95415443e-01 3.88498216e-01
-2.17906518e-01 5.98809230e-01 7.70679101e-01
-7.25733979e-01 -1.97168255e-01 -6.59117765e-01
9.53666524e-01 3.00771233e-01 7.35595624e-03
-2.35120511e-01 -8.39382923e-03 -9.71929792e-01
-4.54357726e-01 -1.50021151e-02 -8.90693208e-01
5.22005614e-01 -3.77036254e-01 -7.65082360e-01
3.64840434e-01 2.70258501e-01 -8.90982536e-01
-1.28092199e-01 -9.69421329e-01 -2.09318094e-01
-7.38981913e-01 2.05928818e-01 -6.41483276e-01
8.84032753e-01 -4.08353511e-01 2.27443807e-01
-8.34228231e-01 5.27758266e-04 -5.51420849e-01
-2.85472937e-01 7.75746788e-01 -5.62781482e-01
9.38466798e-02 -4.40216892e-01 8.92973824e-01
-9.52133615e-01 -2.26265137e-02 -3.04847860e-01
8.42801338e-01 2.28187529e-01 4.87457145e-01
-5.62421738e-01 -8.06408640e-01 -1.82723269e-01
4.32697519e-01 -5.92479755e-01 -6.79513072e-01
-3.60645524e-01 -7.67185621e-01 5.30435797e-01
5.98204939e-01 -6.29531782e-01 4.95821321e-01
9.35590618e-01 -3.53074102e-01 -2.38387086e-03
2.68153553e-01 9.17750198e-01 -2.92963845e-01
6.51302084e-01 7.37720019e-01 -1.77688302e-01
3.63759919e-01 -2.63143318e-01 -8.93550206e-01
-3.77584987e-01 4.29125303e-01 -8.20537412e-01
-3.62764580e-01 8.70115736e-01 -3.33619410e-01
7.54683788e-01 5.72198865e-01 -3.20996243e-01
-9.53517386e-01 -2.98547939e-01 4.09450070e-02
5.90995297e-02 -9.98101524e-01 -1.73087784e-02
-6.55047943e-01 7.05765530e-01 2.69833486e-01
-6.31674711e-01 5.60155948e-01 -5.35923670e-01
-5.12170407e-01 7.35660152e-01 -4.43268875e-01
-6.22991817e-02 -2.45674253e-01 9.67348985e-01
8.14803281e-01 3.72494661e-01 -4.44230352e-01
9.67447181e-01 -1.74047897e-01 1.83712665e-01
1.18086185e-01 3.72100930e-01 -9.20649469e-01
7.25992879e-02 2.27291281e-01 9.71117431e-01
5.62872580e-01 -6.61539246e-01 -4.95517356e-01
1.85001976e-01 -9.63083908e-01 1.95556982e-01
-2.66334930e-01 9.63624150e-01 2.22670997e-02
-8.08981064e-01 5.79020965e-01 -1.01425947e-01
-3.16588546e-01 -2.41868781e-01 -9.17208234e-01
5.64983280e-01 1.35696768e-01 -8.13865908e-01
8.21102900e-01 -3.69296907e-01 -4.35208554e-01
-4.53854547e-01 8.84597788e-01 -1.07260426e-01
5.52121752e-01 3.12757703e-01 7.72880064e-01
8.68482782e-01 4.76441970e-01 1.36888787e-01
-8.93818983e-01 1.87235739e-01 -4.07471314e-01
7.33357035e-01 4.68525257e-03 -6.79825322e-01
1.56049074e-01 7.96472194e-01 5.84193065e-01
-9.81839347e-01 -8.55463088e-02 1.69341368e-01
7.12615382e-01 -2.42709664e-01 -6.58231105e-01
7.30295503e-01 -6.20976379e-01 2.84700493e-01
5.63934022e-01 -1.24482043e-01 -8.16382184e-01
6.61814764e-01 -4.66903750e-01 -5.86514294e-01
6.07244078e-01 7.91518430e-01 6.89349438e-02
2.91628635e-01 5.01446466e-01 -8.14556786e-01
2.79623685e-01 -4.92493860e-01 -8.24171222e-01
8.23438123e-01 -1.08264954e-02 5.67301080e-01
