3.61216840e-01 3.44810124e-01 8.66388964e-01
5.05513589e-01 4.64547468e-01 7.27085201e-01
-5.15019970e-01 8.43857426e-01 1.50530160e-01
-4.92908037e-01 -7.13610706e-01 -4.97795727e-01
1.34236473e-01 3.40245956e-01 9.30706630e-01
-3.10363036e-01 -9.36939526e-01 -1.60682415e-01
7.90518015e-01 1.08472188e-01 6.02757057e-01
-9.75123880e-01 -2.73318045e-02 2.19969914e-01
-3.36153210e-01 8.88820755e-01 -3.11445276e-01
-4.14749373e-01 -5.89423233e-01 -6.93225821e-01
-1.42025607e-01 -5.90824182e-01 -7.94200335e-01
8.66379612e-01 -4.48675818e-01 2.19264107e-01
8.45276288e-01 -3.10247508e-01 4.35034728e-01
2.93353083e-02 -9.93057713e-01 1.13912293e-01
-6.69311811e-01 -2.96972472e-01 6.81050806e-01
8.32518547e-01 -5.53978646e-01 -4.52998701e-03
4.47007045e-01 2.49867947e-01 -8.58923314e-01
-4.42605551e-02 -8.57991486e-01 5.11754314e-01
7.28047361e-01 -6.61929777e-01 1.78315202e-01
2.85344465e-01 8.33558433e-01 4.73032424e-01
2.62727401e-01 5.48808771e-01 7.93589683e-01
3.36494331e-02 -7.15949351e-01 -6.97339992e-01
-5.68531522e-01 5.83310601e-01 5.80104845e-01
-7.25951568e-02 -3.76440385e-01 -9.23591370e-01
-8.47167594e-01 -4.56139238e-01 2.72478481e-01
4.77753130e-02 1.12564668e-01 9.92496041e-01
-7.28047361e-01 6.61929777e-01 1.78315202e-01
5.88859523e-01 -7.27301023e-01 3.52531247e-01
1.03018280e-01 -9.38810911e-01 -3.28665106e-01
9.23639584e-01 3.22919946e-01 -2.06427417e-01
-6.11783195e-01 6.43405439e-01 -4.60163000e-01
3.05783531e-01 4.35465574e-01 -8.46678650e-01
-9.06097585e-01 -4.22767731e-01 1.59574370e-02
-2.73907096e-01 6.59221597e-01 -7.00286089e-01
4.42605550e-02 8.57991486e-01 5.11754314e-01
-6.02943590e-01 -7.78696294e-01 1.73468733e-01
-6.13808681e-01 9.33606481e-02 -7.83914133e-01
-4.17460688e-01 7.51713852e-01 5.10542576e-01
-1.33471777e-02 -1.26677473e-01 -9.91853313e-01
-9.01562716e-01 4.63279891e-02 -4.30160039e-01
-7.88780468e-01 -5.29897432e-02 -6.12385847e-01
-6.88163603e-01 3.82259997e-01 6.16692136e-01
7.39728657e-01 -5.34551430e-01 4.08726036e-01
2.90961451e-01 1.27822647e-01 9.48158429e-01
3.85428883e-01 8.89456344e-01 2.45585836e-01
2.73907096e-01 -6.59221597e-01 -7.00286089e-01
-2.18212838e-01 4.96392329e-01 8.40225703e-01
7.78122581e-01 -4.93883959e-01 -3.88076319e-01
-2.85344465e-01 -8.33558433e-01 4.73032424e-01
-9.45291515e-01 -2.62118793e-01 1.94211273e-01
-3.22377331e-01 6.43337843e-01 6.94399344e-01
-4.33374652e-01 8.97782528e-01 -7.85672360e-02
6.69311811e-01 2.96972472e-01 6.81050806e-01
-3.05783531e-01 -4.35465574e-01 -8.46678650e-01
4.12862375e-01 -7.55986377e-01 -5.07964959e-01
-8.11873121e-02 7.00744696e-01 7.08778307e-01
-8.90058057e-01 4.12509327e-01 -1.93990677e-01
2.30399993e-01 9.70514581e-01 7.08336801e-02
-2.43908156e-01 -7.37741933e-01 -6.29479617e-01
-1.61934333e-01 3.01221182e-01 -9.39702870e-01
1.04834170e-01 -5.27641303e-01 -8.42972733e-01
-1.42065832e-01 -9.44118856e-01 2.97417867e-01
-7.78154406e-01 -3.89242037e-01 4.92917021e-01
-1.34236473e-01 -3.40245956e-01 9.30706630e-01
1.33471777e-02 1.26677473e-01 -9.91853313e-01
-2.93353085e-02 9.93057713e-01 1.13912293e-01
-5.23869628e-01 -1.82394286e-01 8.32042272e-01
8.84357759e-01 2.04230489e-01 -4.19762494e-01
-4.67823952e-01 4.52598321e-01 7.59142142e-01
6.87421916e-01 -4.19639948e-01 -5.92749881e-01
8.62421170e-01 -2.77548012e-01 -4.23315616e-01
1.58358289e-01 7.22697505e-01 6.72779388e-01
6.10636912e-02 8.49307519e-01 -5.24353962e-01
9.60521153e-01 -1.79955953e-01 -2.12166469e-01
5.10109113e-01 7.54298347e-01 4.13307869e-01
-2.35866519e-01 -1.94995483e-01 -9.52020031e-01
-3.61216840e-01 -3.44810124e-01 8.66388964e-01
-2.76632669e-01 9.54256242e-01 1.13444182e-01
-1.91016305e-01 8.23371084e-01 5.34390992e-01
-9.23639584e-01 -3.22919946e-01 -2.06427417e-01
4.94553427e-01 -5.60375782e-01 -6.64375473e-01
-1.94500787e-01 9.74993639e-01 -1.07501938e-01
-1.58358290e-01 -7.22697505e-01 6.72779388e-01
2.02279087e-01 -9.63225980e-02 9.74580307e-01
9.01562716e-01 -4.63279890e-02 -4.30160039e-01
2.11171419e-01 -5.09953094e-02 -9.76117033e-01
-1.02464110e-01 3.16365136e-01 9.43088437e-01
7.78741566e-01 6.20901941e-01 8.96800118e-02
-7.58428474e-01 1.89184772e-01 -6.23694091e-01
4.33374652e-01 -8.97782528e-01 -7.85672360e-02
2.76632669e-01 -9.54256242e-01 1.13444182e-01
3.22377331e-01 -6.43337843e-01 6.94399344e-01
-5.05272594e-01 -8.24371192e-01 -2.55169185e-01
4.35246593e-01 1.78286147e-02 -9.00133892e-01
2.18212838e-01 -4.96392329e-01 8.40225703e-01
7.78154406e-01 3.89242037e-01 4.92917022e-01
-2.90961451e-01 -1.27822647e-01 9.48158429e-01
6.88163603e-01 -3.82259997e-01 6.16692136e-01
-6.60090597e-01 -7.46721099e-01 -8.17793787e-02
-3.50256935e-01 8.78507447e-01 3.24877351e-01
1.61934333e-01 -3.01221182e-01 -9.39702870e-01
9.71622341e-01 6.64710500e-02 -2.27004941e-01
4.14749373e-01 5.89423233e-01 -6.93225821e-01
-1.87609768e-01 8.27643326e-01 -5.28969003e-01
5.50525422e-01 -7.89262663e-01 -2.72003214e-01
6.11783195e-01 -6.43405438e-01 -4.60163000e-01
-2.02279087e-01 9.63225979e-02 9.74580307e-01
5.20509338e-02 9.93247234e-01 -1.03684416e-01
-4.77753129e-02 -1.12564668e-01 9.92496041e-01
3.38555015e-01 -4.50499571e-01 -8.26092757e-01
-1.03018280e-01 9.38810911e-01 -3.28665106e-01
-6.73520357e-01 -6.62653819e-01 -3.27505254e-01
1.42025607e-01 5.90824182e-01 -7.94200334e-01
-5.50525422e-01 7.89262663e-01 -2.72003214e-01
-7.90518015e-01 -1.08472188e-01 6.02757057e-01
-6.20412199e-01 -5.60323428e-01 5.48750660e-01
4.92908037e-01 7.13610706e-01 -4.97795727e-01
-5.20509338e-02 -9.93247234e-01 -1.03684416e-01
6.20412199e-01 5.60323428e-01 5.48750660e-01
5.68531522e-01 -5.83310601e-01 5.80104845e-01
8.08135283e-01 4.46914967e-01 -3.83645317e-01
6.02943590e-01 7.78696294e-01 1.73468733e-01
6.46081982e-01 -7.62664612e-01 -3.03432210e-02
9.75123880e-01 2.73318045e-02 2.19969914e-01
-4.94553426e-01 5.60375782e-01 -6.64375473e-01
-2.62727401e-01 -5.48808771e-01 7.93589683e-01
4.43735561e-01 -5.63037570e-02 8.94388143e-01
-5.62298209e-01 -4.03279916e-01 -7.21931308e-01
6.49431537e-01 1.66133077e-03 7.60419097e-01
-9.48573588e-01 2.11391885e-01 2.35631102e-01
-2.11171419e-01 5.09953094e-02 -9.76117033e-01
-4.12862375e-01 7.55986377e-01 -5.07964959e-01
4.02348471e-01 6.70928300e-01 6.22873965e-01
9.45291514e-01 2.62118793e-01 1.94211274e-01
-7.78122581e-01 4.93883959e-01 -3.88076319e-01
-8.66379612e-01 4.48675818e-01 2.19264107e-01
7.58428474e-01 -1.89184772e-01 -6.23694091e-01
4.69545331e-01 8.82891875e-01 5.39704682e-03
1.87609768e-01 -8.27643326e-01 -5.28969003e-01
7.47416936e-01 3.06070303e-01 -5.89650658e-01
-9.85527596e-01 -1.68643841e-01 -1.71634426e-02
-3.88804138e-01 2.16762561e-01 -8.95457326e-01
-8.32518547e-01 5.53978646e-01 -4.52998695e-03
8.47167594e-01 4.56139238e-01 2.72478481e-01
-3.85428883e-01 -8.89456344e-01 2.45585836e-01
1.32843961e-01 9.38926531e-01 -3.17441200e-01
1.91016305e-01 -8.23371084e-01 5.34390992e-01
2.51380452e-02 5.37786897e-01 8.42706803e-01
9.85527596e-01 1.68643841e-01 -1.71634427e-02
1.02464110e-01 -3.16365136e-01 9.43088437e-01
-5.54975453e-01 3.28822204e-01 -7.64118390e-01
7.03586121e-01 6.26034346e-01 3.36226315e-01
-9.47577411e-01 3.18967993e-01 1.88812500e-02
-4.43735561e-01 5.63037570e-02 8.94388143e-01
1.42065832e-01 9.44118856e-01 2.97417867e-01
-1.32843961e-01 -9.38926531e-01 -3.17441200e-01
-7.39728657e-01 5.34551430e-01 4.08726036e-01
-8.45276288e-01 3.10247508e-01 4.35034728e-01
8.13246514e-01 5.59484279e-01 -1.60022429e-01
-9.71622341e-01 -6.64710500e-02 -2.27004941e-01
7.37098577e-01 -6.42003913e-01 -2.10988878e-01
8.97652981e-01 -5.88688805e-02 4.36754300e-01
-2.30399993e-01 -9.70514581e-01 7.08336801e-02
5.62298209e-01 4.03279916e-01 -7.21931308e-01
5.15019970e-01 -8.43857426e-01 1.50530160e-01
-3.36494332e-02 7.15949351e-01 -6.97339992e-01
-8.08135283e-01 -4.46914967e-01 -3.83645317e-01
-6.46081982e-01 7.62664612e-01 -3.03432210e-02
-3.38555015e-01 4.50499571e-01 -8.26092757e-01
7.88780468e-01 5.29897432e-02 -6.12385847e-01
9.96946811e-01 -7.80156503e-02 3.25868079e-03
1.11517298e-01 -9.37911533e-01 3.28460656e-01
7.25951568e-02 3.76440385e-01 -9.23591370e-01
8.90397604e-01 1.94406456e-01 4.11581016e-01
3.88804138e-01 -2.16762561e-01 -8.95457326e-01
1.94500787e-01 -9.74993639e-01 -1.07501938e-01
7.70206073e-01 -1.53162085e-01 6.19132479e-01
9.48573588e-01 -2.11391885e-01 2.35631102e-01
5.05272594e-01 8.24371192e-01 -2.55169185e-01
-5.05513589e-01 -4.64547468e-01 7.27085201e-01
8.90058057e-01 -4.12509327e-01 -1.93990677e-01
-6.46189842e-01 -5.36573316e-01 -5.42703278e-01
2.43908157e-01 7.37741933e-01 -6.29479617e-01
-4.35246593e-01 -1.78286147e-02 -9.00133892e-01
5.23869628e-01 1.82394286e-01 8.32042272e-01
-4.47007045e-01 -2.49867947e-01 -8.58923314e-01
-8.90397604e-01 -1.94406456e-01 4.11581016e-01
4.17460688e-01 -7.51713852e-01 5.10542576e-01
-8.97652981e-01 5.88688805e-02 4.36754300e-01
-6.35395530e-01 -1.49441735e-01 -7.57587228e-01
-7.03586121e-01 -6.26034346e-01 3.36226315e-01
6.13808682e-01 -9.33606480e-02 -7.83914133e-01
2.35866519e-01 1.94995483e-01 -9.52020031e-01
-9.96946811e-01 7.80156504e-02 3.25868076e-03
-3.20897075e-01 -8.48031325e-01 -4.21743081e-01
-6.49431537e-01 -1.66133074e-03 7.60419097e-01
6.60090597e-01 7.46721099e-01 -8.17793786e-02
-8.13246514e-01 -5.59484279e-01 -1.60022429e-01
6.73520357e-01 6.62653819e-01 -3.27505254e-01
-5.78408800e-01 2.35162711e-01 7.81116559e-01
3.10363036e-01 9.36939526e-01 -1.60682415e-01
3.50050929e-01 -2.84792537e-01 8.92389526e-01
-4.02348471e-01 -6.70928300e-01 6.22873965e-01
6.46189842e-01 5.36573316e-01 -5.42703278e-01
4.67823952e-01 -4.52598321e-01 7.59142142e-01
3.36153210e-01 -8.88820755e-01 -3.11445276e-01
-7.78741566e-01 -6.20901941e-01 8.96800119e-02
5.78408800e-01 -2.35162711e-01 7.81116559e-01
-7.37098577e-01 6.42003913e-01 -2.10988878e-01
-4.69545331e-01 -8.82891875e-01 5.39704681e-03
-2.51380452e-02 -5.37786897e-01 8.42706803e-01
6.35395530e-01 1.49441735e-01 -7.57587228e-01
-7.47416936e-01 -3.06070303e-01 -5.89650658e-01
-1.11517298e-01 9.37911533e-01 3.28460656e-01
-1.04834170e-01 5.27641303e-01 -8.42972733e-01
-3.50050929e-01 2.84792537e-01 8.92389526e-01
-5.88859523e-01 7.27301023e-01 3.52531247e-01
-5.10109113e-01 -7.54298347e-01 4.13307869e-01
8.11873121e-02 -7.00744696e-01 7.08778307e-01
3.50256935e-01 -8.78507447e-01 3.24877351e-01
-8.62421170e-01 2.77548012e-01 -4.23315616e-01
-6.10636912e-02 -8.49307519e-01 -5.24353962e-01
-7.70206073e-01 1.53162084e-01 6.19132479e-01
5.54975453e-01 -3.28822204e-01 -7.64118390e-01
9.06097585e-01 4.22767731e-01 1.59574370e-02
9.47577411e-01 -3.18967993e-01 1.88812500e-02
-8.84357759e-01 -2.04230489e-01 -4.19762495e-01
-6.87421916e-01 4.19639948e-01 -5.92749882e-01
-9.60521153e-01 1.79955953e-01 -2.12166469e-01
3.20897075e-01 8.48031325e-01 -4.21743081e-01
