2.40932701e-01 8.10417300e-01 5.34018008e-01
8.92217964e-02 -3.61281938e-01 -9.28178233e-01
1.48643849e-01 -1.99414821e-01 9.68575622e-01
2.07809197e-01 4.32595212e-01 8.77312214e-01
7.01611207e-02 1.27619688e-01 -9.89338482e-01
4.84593693e-01 7.29499833e-01 -4.82699644e-01
7.28798100e-01 6.84603406e-01 -1.30960241e-02
-1.61511148e-01 7.06191141e-01 -6.89353480e-01
-1.45281035e-02 -9.99887887e-01 -3.62590953e-03
4.33037663e-01 8.16295483e-01 3.82282706e-01
6.59143727e-01 -7.49252967e-01 -6.44169159e-02
3.03030936e-01 -2.38470751e-01 -9.22661342e-01
7.69724767e-01 -1.96859067e-01 6.07264596e-01
-5.70497423e-01 5.83224319e-01 -5.78257800e-01
3.19300240e-01 9.45461695e-01 -6.44169159e-02
5.03150189e-01 -1.14238532e-01 -8.56615109e-01
9.20253949e-01 3.25986900e-01 -2.16483742e-01
6.85795472e-01 -6.68980659e-01 -2.86617253e-01
6.75627117e-01 1.45044274e-02 -7.37100821e-01
-8.00216407e-01 -5.99689216e-01 5.15228519e-03
7.76842094e-01 -4.84368670e-01 -4.02372157e-01
-1.85182018e-01 6.02247874e-01 7.76534042e-01
-6.71370319e-01 -7.21870674e-01 1.67823197e-01
3.03964718e-01 -4.65800075e-01 -8.31044969e-01
-3.29006033e-01 -9.18157674e-01 2.20774807e-01
9.05515629e-01 -3.39607986e-01 -2.54377400e-01
6.14152967e-01 -1.40751605e-01 7.76534043e-01
2.02192350e-01 9.25766077e-01 3.19492447e-01
-9.57282991e-01 2.88855966e-01 -1.30960241e-02
-3.25252356e-01 -5.92362461e-01 -7.37100821e-01
1.06183189e-01 -5.82330491e-01 -8.05987797e-01
7.65495077e-01 -4.48757224e-01 4.61122805e-01
7.90335788e-01 2.02453102e-01 -5.78257800e-01
-7.07078535e-01 3.52634845e-01 -6.12934427e-01
-1.77814038e-01 -9.59956748e-01 -2.16483742e-01
-7.33708176e-01 2.86164046e-01 6.16264920e-01
-8.09325414e-01 5.77784301e-02 5.84511785e-01
7.85180626e-01 -6.12491268e-01 9.13555198e-02
-2.86306892e-01 -6.37544397e-01 7.15238077e-01
4.94185939e-01 5.93581271e-02 8.67327430e-01
-1.40825469e-01 -2.45018320e-01 -9.59236264e-01
5.88761814e-03 8.87316795e-01 4.61122805e-01
2.68985181e-01 8.26286105e-01 -4.94871948e-01
-9.72827498e-01 1.26903715e-01 1.93654606e-01
3.85576162e-01 9.08428892e-01 1.61517711e-01
5.07451087e-01 -8.16841135e-01 -2.74342768e-01
3.76511908e-01 -9.05945184e-01 1.93654606e-01
-3.66994379e-02 -6.30618997e-01 7.75224375e-01
9.60843501e-01 -2.20488414e-01 1.67823197e-01
8.17443616e-01 3.88803209e-01 -4.24991764e-01
-4.36878866e-01 7.19924338e-01 5.39301218e-01
8.29055453e-01 -2.68596653e-01 -4.90431335e-01
-3.85644868e-01 7.39810159e-01 -5.51324735e-01
9.12991102e-01 1.42257790e-01 -3.82374122e-01
-4.44058683e-01 8.32508575e-01 3.31272332e-01
5.08417099e-01 -3.44947631e-01 -7.89001385e-01
4.85863545e-01 -3.34227848e-01 8.07606564e-01
2.28484891e-01 -9.73459372e-01 -1.30960239e-02
9.83867977e-01 7.40002072e-02 -1.62873487e-01
-3.20726100e-01 -2.54457784e-01 9.12351909e-01
6.59980150e-01 -4.38329060e-01 -6.10158862e-01
-9.79510579e-01 -1.20295695e-01 1.61517711e-01
-3.95283113e-01 1.80327216e-01 9.00684937e-01
4.23992198e-01 4.78587198e-01 7.68885499e-01
4.54700295e-01 6.72007154e-01 5.84511785e-01
4.96140262e-02 7.90724106e-01 -6.10158862e-01
-5.32381579e-01 -2.53656248e-01 8.07606564e-01
9.65784949e-01 2.59333281e-01 2.38352963e-03
-4.47871958e-01 -7.03883332e-01 -5.51324735e-01
1.37842684e-01 9.86232003e-01 9.13555198e-02
6.88808952e-02 -9.71372212e-01 -2.27357534e-01
4.14736065e-02 -4.32488825e-01 9.00684937e-01
-6.36654824e-01 6.41075039e-01 4.28594715e-01
-2.47020225e-01 -2.90219383e-02 9.68575622e-01
2.36456509e-01 9.28406629e-01 -2.86617253e-01
6.58930002e-01 4.36030551e-01 -6.12934427e-01
-6.41591825e-01 -7.61085946e-01 -9.54364336e-02
-2.36859858e-01 -8.71896770e-01 4.28594715e-01
5.50062609e-02 3.81667864e-01 -9.22661342e-01
-8.22308320e-01 -1.96554810e-01 5.34018008e-01
-8.75673460e-01 4.26033501e-01 -2.27357535e-01
2.70733845e-01 -3.96265650e-01 8.77312214e-01
-5.55347337e-01 -5.68171669e-01 6.07264596e-01
-8.94830745e-02 -2.33453254e-01 9.68241890e-01
9.59650887e-01 1.74151255e-01 2.20774807e-01
-9.23451457e-01 -3.31261247e-02 3.82282706e-01
5.39619483e-01 8.41124737e-01 -3.63316767e-02
8.24924843e-01 -5.46960412e-01 -1.42594922e-01
2.68268438e-01 2.57909311e-01 -9.28178233e-01
5.96315590e-01 7.79041469e-01 1.93654606e-01
6.24931103e-01 2.43407293e-01 -7.41764118e-01
2.46917986e-01 3.92320113e-02 9.68241890e-01
-5.23262451e-01 4.19502564e-01 -7.41764118e-01
3.04548378e-01 -9.21694547e-01 -2.40269530e-01
9.79915676e-01 -1.75091847e-01 -9.54364336e-02
-9.61130717e-01 -3.10449647e-02 -2.74342768e-01
-1.58648671e-01 9.54003531e-01 -2.54377400e-01
2.51412339e-01 4.96141205e-01 -8.31044969e-01
-9.23023311e-01 -3.73740735e-01 9.13555197e-02
6.12191901e-02 9.87886076e-01 -1.42594922e-01
-1.95687323e-01 -4.57656640e-01 8.67327430e-01
-9.02833116e-01 -2.87779328e-01 3.19492447e-01
-9.98245131e-01 4.67618123e-02 -3.63316768e-02
-7.20083518e-02 -9.02328542e-01 -4.24991764e-01
5.64481790e-01 2.83526853e-01 7.75224375e-01
-1.81916202e-01 8.52281410e-01 -4.90431335e-01
-4.08976198e-01 5.66721240e-01 7.15238076e-01
1.44203991e-02 -9.02479238e-01 4.30491902e-01
8.73192363e-01 4.87362237e-01 -3.62590954e-03
-3.42086973e-01 3.42444622e-01 -8.75047532e-01
-3.78670687e-01 8.63421913e-01 -3.33333333e-01
-7.88780146e-01 4.38751187e-01 4.30491902e-01
-3.38323851e-01 9.36177793e-01 -9.54364336e-02
2.02472572e-01 -6.06481614e-01 7.68885499e-01
-6.00038552e-02 4.04985842e-01 9.12351909e-01
-8.86144033e-01 -4.40925664e-01 -1.42594922e-01
-2.14377431e-01 7.65030736e-01 6.07264596e-01
4.57851901e-01 -5.72133746e-01 -6.80466468e-01
-5.57404593e-01 1.99207906e-01 -8.05987798e-01
2.56974746e-01 -8.73535032e-01 4.13401170e-01
1.78889799e-01 -8.79726026e-01 -4.40545751e-01
-1.19237891e-01 9.92852345e-01 5.15228506e-03
4.58625648e-01 -8.87886549e-01 -3.63316768e-02
-3.33296691e-01 -8.61802383e-01 -3.82374122e-01
5.93934417e-01 -7.88133198e-01 1.61517711e-01
-2.98498615e-01 3.98298514e-01 8.67327430e-01
7.66664816e-01 6.05613684e-01 2.13206768e-01
-9.07809243e-01 3.61144364e-01 2.13206768e-01
-7.42439911e-01 6.33969848e-01 -2.16483742e-01
2.66556408e-01 6.82578250e-01 -6.80466468e-01
2.30205478e-02 7.58096587e-01 6.51735851e-01
-7.45435264e-01 5.13525333e-01 -4.24991764e-01
4.94139813e-11 4.59175048e-12 1.00000000e+00
-5.56020048e-01 8.15054559e-01 -1.62873487e-01
-6.30644854e-01 7.44006420e-01 2.20774807e-01
-3.50374761e-01 5.77858033e-01 -7.37100821e-01
9.19454299e-01 -3.93163129e-01 5.15228508e-03
-6.14400714e-01 5.00177827e-01 6.10191695e-01
4.31918559e-01 -5.47273152e-01 7.16895010e-01
-5.52941962e-01 -2.67828308e-01 -7.89001384e-01
-9.69977364e-02 -9.70079525e-01 2.22569438e-01
3.89468541e-01 -7.84420365e-01 -4.82699644e-01
4.53679631e-01 8.47886100e-01 -2.74342769e-01
-9.50485081e-01 1.97100642e-01 -2.40269530e-01
-7.46866958e-01 -6.14395545e-01 -2.54377400e-01
-9.22251981e-01 -2.59425971e-01 -2.86617253e-01
1.19028755e-01 -7.78491942e-01 6.16264920e-01
-2.19838365e-01 -7.85677421e-01 -5.78257800e-01
4.90413794e-01 -7.83169358e-01 3.82282706e-01
3.54625119e-01 -7.29785584e-01 5.84511785e-01
6.45936703e-01 7.24593906e-01 -2.40269530e-01
4.51221404e-01 3.83122585e-01 -8.05987797e-01
-7.71382695e-01 -4.38559571e-01 4.61122805e-01
9.97664088e-01 -2.11560797e-03 6.82780489e-02
-5.30823894e-01 -4.92968328e-01 -6.89353480e-01
5.81375619e-01 -6.13862490e-01 5.34018008e-01
-4.27847929e-01 -8.89054766e-01 -1.62873487e-01
7.40367061e-01 2.81997713e-01 6.10191695e-01
6.45020629e-01 -3.98984673e-01 6.51735851e-01
9.37080654e-01 -1.03772522e-01 -3.33333333e-01
-5.00664214e-01 -8.62944641e-01 6.82780489e-02
-4.05033333e-01 -7.38310365e-01 5.39301218e-01
-5.55377057e-01 -3.03411301e-02 -8.31044969e-01
-3.57490235e-01 1.03372627e-01 -9.28178233e-01
-8.14617989e-01 -5.27495654e-01 2.41134544e-01
8.64133631e-01 -4.41732046e-01 2.41134544e-01
7.74359747e-01 4.63728051e-01 4.30491902e-01
-2.89473183e-01 9.42359088e-01 1.67823197e-01
-4.98944234e-01 -8.00820388e-01 3.31272332e-01
-8.07896620e-01 -4.30580653e-01 -4.02372157e-01
-7.09594176e-01 -3.52395046e-01 -6.10158862e-01
6.14679421e-01 4.92327897e-01 6.16264920e-01
-5.58409968e-01 -7.59649391e-01 -3.33333333e-01
4.65180347e-02 5.87884096e-01 8.07606564e-01
-8.50077348e-01 -1.80195053e-01 -4.94871948e-01
-1.41779355e-01 2.44467594e-01 -9.59236264e-01
8.73514681e-01 2.30821731e-01 4.28594715e-01
-8.74062234e-01 5.49205319e-02 -4.82699644e-01
6.92335042e-01 -2.13222813e-01 -6.89353480e-01
7.00640766e-01 -6.37986750e-01 3.19492447e-01
-6.47139251e-01 -5.83684757e-01 -4.90431335e-01
-1.25966348e-01 -7.82175540e-01 6.10191695e-01
2.82604824e-01 5.50726502e-04 -9.59236264e-01
-7.24408309e-01 -1.10444504e-01 -6.80466468e-01
-7.91614644e-01 5.69042266e-01 2.22569438e-01
-9.78443967e-01 -1.96208729e-01 -6.44169158e-02
-3.50508565e-01 -3.78621580e-01 -8.56615109e-01
3.10545260e-02 9.14949323e-01 -4.02372157e-01
6.28016156e-01 6.59314174e-01 4.13401170e-01
-1.01668652e-01 -6.62909857e-01 -7.41764118e-01
9.83763768e-02 2.28436760e-01 9.68575622e-01
-6.89911732e-01 -1.00415869e-01 7.16895010e-01
-4.78543042e-01 -3.63295621e-02 8.77312214e-01
-2.58303265e-01 -9.66060941e-01 2.38352978e-03
-5.79694411e-01 7.19544593e-01 -3.82374122e-01
-4.28970949e-01 -4.61496268e-01 7.76534043e-01
1.41144428e-01 -9.66758049e-01 2.13206768e-01
-1.57434911e-01 1.94221243e-01 9.68241890e-01
4.45248622e-02 6.12775939e-01 -7.89001384e-01
9.43002917e-01 -3.16881874e-02 3.31272332e-01
-1.25522255e-01 -4.67478320e-01 -8.75047532e-01
5.81092167e-01 -6.46091052e-01 -4.94871948e-01
-4.95156420e-02 9.69227699e-01 2.41134544e-01
-4.96999874e-01 8.65060248e-01 6.82780488e-02
-6.68041177e-01 -3.59111914e-01 6.51735851e-01
8.06792564e-01 5.45338711e-01 -2.27357535e-01
8.33516826e-01 -3.59268271e-02 -5.51324735e-01
2.61787755e-01 -7.00534709e-01 -6.63866171e-01
4.81485333e-02 -7.88665396e-01 -6.12934427e-01
7.54413317e-02 -1.24571157e-01 -9.89338482e-01
-1.52641624e-01 4.92860112e-01 -8.56615109e-01
-6.52669704e-01 -6.39819977e-01 4.05774142e-01
-5.27782353e-01 3.47092144e-01 7.75224375e-01
-8.58664259e-01 5.12525650e-01 -3.62590957e-03
8.80435206e-01 -2.45318555e-01 4.05774142e-01
-7.07481684e-01 7.06727660e-01 2.38352962e-03
-8.51309986e-01 2.84939902e-01 -4.40545751e-01
-6.26464770e-01 1.27894416e-01 7.68885499e-01
-1.45602452e-01 -3.04853123e-03 -9.89338482e-01
2.57993172e-01 6.47689021e-01 7.16895010e-01
3.80729955e-01 -1.50528058e-01 9.12351909e-01
6.95283089e-01 7.08231570e-02 7.15238076e-01
8.41912198e-01 1.83860272e-02 5.39301218e-01
3.53809506e-01 2.52161609e-01 9.00684937e-01
6.72420187e-01 5.94786124e-01 -4.40545751e-01
4.67609228e-01 1.25033698e-01 -8.75047532e-01
-8.84990902e-01 2.14220858e-01 4.13401170e-01
4.75786977e-01 5.76982201e-01 -6.63866171e-01
-7.37574732e-01 1.23552508e-01 -6.63866171e-01
8.88612380e-01 4.01037259e-01 2.22569438e-01
-3.58037197e-01 -1.43197113e-01 -9.22661342e-01
-2.27765502e-01 8.85138532e-01 4.05774142e-01
