5.89656144e-01 -6.69660552e-01 4.51509344e-01
9.08839110e-01 2.30004248e-01 3.48008274e-01
-6.86220597e-01 4.35435356e-01 -5.82663660e-01
1.72320730e-01 -8.55829161e-01 -4.87710649e-01
3.47376370e-02 -9.93304147e-01 -1.10182086e-01
-8.45929069e-01 5.31321334e-01 4.58440996e-02
-5.57732550e-01 6.35808894e-01 -5.33555139e-01
-9.25415779e-01 -2.92475976e-01 -2.40963218e-01
-4.82973630e-01 -7.50030896e-01 -4.51873673e-01
4.94468228e-01 -4.95558391e-01 -7.14088622e-01
5.40616119e-01 -2.97497963e-01 7.86911505e-01
9.54107517e-01 -2.06961582e-01 -2.16438443e-01
3.76099271e-01 3.56313112e-01 8.55330868e-01
4.54565652e-01 1.18526823e-01 -8.82791511e-01
-4.84241647e-01 -3.66891507e-01 -7.94292202e-01
9.14886411e-02 -9.85967646e-01 1.39634256e-01
-2.37953226e-01 -6.76548767e-02 -9.68917134e-01
-9.26127111e-01 3.21340975e-02 3.75840701e-01
2.01572077e-01 -6.46113867e-01 7.36142701e-01
2.52448877e-01 7.22147001e-01 6.44029283e-01
2.93417207e-01 2.94766862e-01 -9.09405418e-01
5.09369255e-01 1.51830169e-01 8.47048491e-01
-6.88812114e-03 -5.18160398e-01 8.55256070e-01
3.64848202e-01 -3.34676429e-01 -8.68836508e-01
-8.47362450e-01 3.33062281e-01 -4.13577212e-01
-9.54107517e-01 2.06961582e-01 -2.16438444e-01
2.60386879e-01 -9.65176884e-01 -2.51443600e-02
3.05186147e-01 7.34338533e-01 -6.06306784e-01
-7.64246699e-01 6.26094182e-01 -1.54702785e-01
9.74603004e-01 3.29593704e-02 -2.21500593e-01
-2.04880741e-01 9.40812816e-01 -2.69990631e-01
8.14601610e-01 3.89391259e-01 -4.29881807e-01
-2.79063066e-01 -8.50360391e-01 4.46106845e-01
8.97895061e-01 -1.04822591e-01 -4.27546944e-01
-1.33282768e-01 3.71538806e-01 -9.18800298e-01
-3.47376368e-02 9.93304147e-01 -1.10182086e-01
-1.79063554e-01 8.01217629e-01 5.70952667e-01
-9.14886410e-02 9.85967646e-01 1.39634256e-01
-6.49839083e-01 -4.16164184e-01 -6.36015802e-01
-2.71360955e-02 -7.04722041e-01 7.08964714e-01
6.31996527e-01 1.79708476e-01 -7.53846625e-01
-5.48325621e-01 7.94497491e-01 2.60984541e-01
-5.38024560e-02 -2.27745229e-01 -9.72232861e-01
-9.82134600e-01 -1.84243863e-01 -3.82857640e-02
9.25415779e-01 2.92475976e-01 -2.40963218e-01
-1.19779253e-01 7.30527333e-01 -6.72296276e-01
-6.92775175e-01 -1.33066734e-01 7.08770971e-01
-6.31996527e-01 -1.79708476e-01 -7.53846625e-01
2.94618422e-01 9.29320159e-01 2.22630142e-01
8.45929069e-01 -5.31321334e-01 4.58440997e-02
8.81543339e-01 -4.06375039e-01 2.40293227e-01
3.17163043e-01 -9.22887277e-01 2.18373143e-01
1.32466129e-01 9.89573718e-01 5.65386631e-02
1.52323011e-01 3.36514368e-01 9.29277365e-01
8.81470976e-01 -4.30461742e-01 -1.94194423e-01
-9.08839110e-01 -2.30004248e-01 3.48008273e-01
4.94950236e-01 7.98688999e-01 3.42228554e-01
6.75046363e-01 7.22054666e-01 1.51491161e-01
5.57732550e-01 -6.35808894e-01 -5.33555139e-01
-5.95456660e-02 5.67013636e-01 -8.21552971e-01
7.87729665e-01 2.92316871e-03 -6.16013803e-01
8.10688149e-02 9.48247436e-01 3.07009542e-01
1.42082445e-01 -9.16287840e-01 3.74472204e-01
-1.42082445e-01 9.16287840e-01 3.74472204e-01
-9.33234612e-01 -3.27763638e-01 1.47119875e-01
7.46292016e-01 -5.46465039e-01 -3.80031480e-01
8.25884396e-01 5.41773471e-01 1.56194039e-01
-8.06526782e-01 -5.33060814e-01 -2.55657078e-01
4.73203979e-01 -8.79213502e-01 5.53321847e-02
6.86220597e-01 -4.35435356e-01 -5.82663660e-01
1.20284332e-01 4.43227747e-01 -8.88301881e-01
-3.49208109e-01 7.02147270e-01 -6.20517913e-01
-3.15615805e-01 -5.32044022e-01 -7.85694140e-01
-9.62356798e-01 1.82660299e-01 2.01257910e-01
2.12035676e-01 -4.55606999e-01 8.64559847e-01
-4.15866110e-01 8.87908814e-01 -1.96654983e-01
-5.81575890e-01 -8.09685464e-01 -7.86058447e-02
1.93557550e-02 9.34747909e-01 -3.54783677e-01
6.66520998e-01 5.81391618e-01 -4.66618928e-01
7.17709310e-02 8.25493057e-01 -5.59830118e-01
4.15866110e-01 -8.87908814e-01 -1.96654983e-01
-6.33396773e-01 8.47830466e-02 7.69168963e-01
-7.57530172e-01 2.20382548e-01 -6.14474693e-01
-1.72320730e-01 8.55829161e-01 -4.87710649e-01
-7.58076465e-01 4.67881403e-01 4.54320788e-01
-1.89248450e-01 -9.61742601e-01 -1.98080934e-01
1.89248450e-01 9.61742601e-01 -1.98080934e-01
-4.13445052e-01 4.95866220e-01 7.63662496e-01
-6.66520998e-01 -5.81391618e-01 -4.66618928e-01
-4.94468228e-01 4.95558391e-01 -7.14088622e-01
-3.64848202e-01 3.34676429e-01 -8.68836508e-01
-4.05439682e-01 6.81726740e-01 6.08989110e-01
-7.61289293e-01 -6.45883423e-01 -5.72116892e-02
-3.76099271e-01 -3.56313111e-01 8.55330868e-01
-1.93234269e-01 1.57264200e-01 -9.68466737e-01
9.48231532e-01 -3.17506072e-01 6.84551309e-03
2.01088622e-01 -8.36164588e-02 9.75998118e-01
4.92215055e-01 8.61447174e-01 1.25032764e-01
-1.52323012e-01 -3.36514368e-01 9.29277365e-01
9.82134600e-01 1.84243863e-01 -3.82857639e-02
3.94607392e-01 -8.17083209e-01 -4.20309108e-01
-8.81470976e-01 4.30461742e-01 -1.94194423e-01
7.58076465e-01 -4.67881403e-01 4.54320788e-01
-6.75046363e-01 -7.22054666e-01 1.51491161e-01
1.79063554e-01 -8.01217629e-01 5.70952667e-01
5.97356677e-01 -7.30737918e-01 -3.30434364e-01
-6.35488896e-01 -5.29113376e-01 5.62310667e-01
6.75079426e-01 6.40153358e-01 3.66703831e-01
7.64246699e-01 -6.26094182e-01 -1.54702785e-01
9.26127111e-01 -3.21340975e-02 3.75840701e-01
-5.77463536e-01 2.81624497e-01 -7.66304756e-01
-2.84150392e-01 5.46551391e-01 -7.87743353e-01
-5.85730949e-01 -3.53635555e-01 7.29288456e-01
-4.21609842e-01 1.12572475e-01 -8.99762168e-01
-8.81543339e-01 4.06375039e-01 2.40293227e-01
3.48000812e-01 9.36782205e-01 -3.65309463e-02
1.33282768e-01 -3.71538806e-01 -9.18800297e-01
-9.74603003e-01 -3.29593704e-02 -2.21500594e-01
5.81575890e-01 8.09685464e-01 -7.86058446e-02
7.97075206e-01 -9.57585915e-02 5.96239733e-01
-9.82211293e-01 -7.50330768e-02 1.72136959e-01
-3.77104498e-01 8.22693461e-01 4.25403291e-01
-4.67297418e-01 -6.99460617e-01 5.40729453e-01
-7.44323906e-01 6.08770652e-01 2.74554922e-01
2.25821731e-01 5.48649023e-01 8.04977857e-01
-5.48393287e-02 -8.49118429e-01 5.25348365e-01
3.77104498e-01 -8.22693461e-01 4.25403291e-01
2.71360954e-02 7.04722041e-01 7.08964714e-01
-6.23275917e-01 5.60951974e-02 -7.79987130e-01
9.97079318e-01 -7.54127665e-02 -1.20723118e-02
5.93630528e-01 -5.08388161e-01 6.23814639e-01
-8.10688148e-02 -9.48247436e-01 3.07009542e-01
-5.93630528e-01 5.08388161e-01 6.23814639e-01
-3.38452902e-01 2.69278525e-01 9.01631483e-01
6.88812105e-03 5.18160397e-01 8.55256070e-01
8.66616273e-01 -2.57343824e-01 4.27493492e-01
-6.04726021e-01 7.88692420e-01 -1.10772878e-01
5.38024561e-02 2.27745229e-01 -9.72232861e-01
2.04880741e-01 -9.40812816e-01 -2.69990631e-01
-8.99998845e-01 -1.33312741e-01 -4.15005429e-01
3.49208109e-01 -7.02147270e-01 -6.20517913e-01
-5.89656144e-01 6.69660552e-01 4.51509344e-01
8.15188070e-01 4.48697730e-01 3.66249927e-01
6.33396772e-01 -8.47830467e-02 7.69168963e-01
7.97812528e-02 -2.88527345e-01 9.54142327e-01
8.38797204e-01 1.18171118e-01 5.31465148e-01
8.98368075e-01 4.35549851e-01 -5.68426789e-02
-7.59165134e-01 -3.32801014e-01 5.59385529e-01
7.44323906e-01 -6.08770652e-01 2.74554922e-01
-1.32466129e-01 -9.89573718e-01 5.65386629e-02
-8.14601610e-01 -3.89391259e-01 -4.29881807e-01
4.84241647e-01 3.66891507e-01 -7.94292202e-01
-1.20284332e-01 -4.43227747e-01 -8.88301881e-01
-2.57944432e-01 -8.72696069e-01 -4.14567191e-01
2.79063066e-01 8.50360391e-01 4.46106845e-01
1.93234269e-01 -1.57264200e-01 -9.68466737e-01
-7.17709309e-02 -8.25493057e-01 -5.59830118e-01
4.82973630e-01 7.50030896e-01 -4.51873673e-01
6.23275917e-01 -5.60951974e-02 -7.79987130e-01
9.62356798e-01 -1.82660299e-01 2.01257910e-01
3.15615805e-01 5.32044022e-01 -7.85694140e-01
-1.27721440e-01 -6.66786749e-01 -7.34222145e-01
-4.54565652e-01 -1.18526823e-01 -8.82791511e-01
-4.94950236e-01 -7.98688999e-01 3.42228554e-01
-9.97079318e-01 7.54127665e-02 -1.20723119e-02
7.14459612e-01 -3.04591102e-01 6.29898529e-01
1.19779253e-01 -7.30527333e-01 -6.72296277e-01
-3.48000812e-01 -9.36782205e-01 -3.65309463e-02
-7.46292016e-01 5.46465039e-01 -3.80031480e-01
7.59165133e-01 3.32801015e-01 5.59385529e-01
-5.40616119e-01 2.97497963e-01 7.86911504e-01
7.77670050e-01 2.28580140e-01 -5.85644951e-01
2.92365764e-01 1.38791215e-01 9.46181753e-01
-2.52448877e-01 -7.22147001e-01 6.44029283e-01
-8.66616274e-01 2.57343824e-01 4.27493492e-01
5.85730949e-01 3.53635555e-01 7.29288456e-01
4.91041026e-01 5.89244031e-01 -6.41614947e-01
-3.94607391e-01 8.17083209e-01 -4.20309108e-01
-8.98368075e-01 -4.35549851e-01 -5.68426790e-02
-2.94618422e-01 -9.29320159e-01 2.22630141e-01
9.82211293e-01 7.50330768e-02 1.72136959e-01
8.99998845e-01 1.33312741e-01 -4.15005429e-01
6.35488896e-01 5.29113376e-01 5.62310667e-01
-8.38797205e-01 -1.18171118e-01 5.31465147e-01
5.48393286e-02 8.49118429e-01 5.25348365e-01
4.39315817e-01 5.45820518e-01 7.13499871e-01
-5.71517196e-02 -1.05624919e-01 9.92762681e-01
4.21609843e-01 -1.12572475e-01 -8.99762168e-01
-4.39315817e-01 -5.45820518e-01 7.13499871e-01
-7.14459612e-01 3.04591102e-01 6.29898529e-01
-6.75079426e-01 -6.40153358e-01 3.66703831e-01
8.06526782e-01 5.33060814e-01 -2.55657078e-01
8.52780403e-11 3.77087223e-11 -9.99999656e-01
-4.37688025e-01 6.30349732e-02 8.96914936e-01
-5.09369255e-01 -1.51830169e-01 8.47048491e-01
-7.97075206e-01 9.57585915e-02 5.96239733e-01
-2.01572077e-01 6.46113867e-01 7.36142701e-01
-2.12035676e-01 4.55606999e-01 8.64559847e-01
-6.92161278e-01 7.16703180e-01 8.51432676e-02
-1.93557549e-02 -9.34747909e-01 -3.54783677e-01
2.84150392e-01 -5.46551391e-01 -7.87743353e-01
-4.73203979e-01 8.79213502e-01 5.53321846e-02
-5.97356677e-01 7.30737918e-01 -3.30434364e-01
5.48325621e-01 -7.94497491e-01 2.60984541e-01
4.13445051e-01 -4.95866220e-01 7.63662496e-01
9.33234612e-01 3.27763638e-01 1.47119876e-01
6.49839083e-01 4.16164184e-01 -6.36015802e-01
4.37688024e-01 -6.30349733e-02 8.96914937e-01
-7.97812530e-02 2.88527345e-01 9.54142327e-01
-2.93417207e-01 -2.94766862e-01 -9.09405418e-01
3.38452902e-01 -2.69278525e-01 9.01631483e-01
5.77463536e-01 -2.81624497e-01 -7.66304756e-01
4.05439682e-01 -6.81726740e-01 6.08989110e-01
-4.92215055e-01 -8.61447174e-01 1.25032763e-01
1.27721440e-01 6.66786749e-01 -7.34222145e-01
-2.25821731e-01 -5.48649023e-01 8.04977857e-01
-8.15188070e-01 -4.48697730e-01 3.66249927e-01
-8.97895061e-01 1.04822591e-01 -4.27546944e-01
8.47362450e-01 -3.33062281e-01 -4.13577212e-01
-3.05186147e-01 -7.34338533e-01 -6.06306785e-01
6.92161278e-01 -7.16703180e-01 8.51432677e-02
-2.60386879e-01 9.65176884e-01 -2.51443600e-02
2.57944432e-01 8.72696069e-01 -4.14567191e-01
5.71517194e-02 1.05624919e-01 9.92762681e-01
6.04726021e-01 -7.88692420e-01 -1.10772878e-01
7.57530172e-01 -2.20382548e-01 -6.14474692e-01
-7.87729665e-01 -2.92316868e-03 -6.16013803e-01
-4.91041026e-01 -5.89244031e-01 -6.41614947e-01
-4.28338291e-01 -8.67795114e-01 -2.51908267e-01
-2.92365764e-01 -1.38791215e-01 9.46181753e-01
4.67297418e-01 6.99460617e-01 5.40729453e-01
7.61289293e-01 6.45883423e-01 -5.72116890e-02
-8.25884396e-01 -5.41773471e-01 1.56194039e-01
-6.42827591e-01 -7.14503438e-01 -2.76147307e-01
4.28338291e-01 8.67795114e-01 -2.51908267e-01
-3.17163043e-01 9.22887277e-01 2.18373143e-01
6.42827591e-01 7.14503438e-01 -2.76147306e-01
5.95456662e-02 -5.67013636e-01 -8.21552971e-01
-9.48231532e-01 3.17506072e-01 6.84551296e-03
2.37953226e-01 6.76548768e-02 -9.68917134e-01
6.92775175e-01 1.33066734e-01 7.08770971e-01
-7.77670050e-01 -2.28580140e-01 -5.85644952e-01
-2.01088623e-01 8.36164588e-02 9.75998118e-01
