7.85645291e-01 -2.42772496e-01 5.69054472e-01
3.67180622e-01 -3.98135748e-01 -8.40634473e-01
-9.81930328e-01 4.71639000e-02 1.83271377e-01
5.03765519e-01 -5.14807370e-01 -6.93681248e-01
8.39722658e-02 -9.15540753e-01 -3.93362160e-01
3.26263296e-01 7.99002557e-01 -5.05120951e-01
-8.77597420e-01 4.13475662e-01 -2.42612129e-01
7.36151117e-01 -5.86530855e-01 3.37732273e-01
9.66289991e-01 4.51973217e-02 -2.53457797e-01
3.35438019e-01 -7.07484168e-01 6.22051033e-01
-9.67817602e-01 -1.78963205e-01 1.76921622e-01
-8.45712002e-01 3.78841753e-01 3.75832590e-01
-3.24379445e-01 8.68059813e-01 -3.75832590e-01
9.91957706e-01 -1.20816796e-01 -3.77254731e-02
-2.40349327e-01 -4.02343129e-01 -8.83375463e-01
-4.84369252e-01 -8.00800785e-01 3.52284729e-01
-4.37103264e-01 8.86123338e-01 -1.54033002e-01
8.20140121e-01 6.56111323e-03 5.72125104e-01
-3.70372244e-01 -5.37855155e-01 -7.57321750e-01
5.38605963e-01 -7.71907072e-01 -3.37732273e-01
1.77145748e-01 9.83389275e-01 3.95590402e-02
-6.79786695e-01 -5.44717901e-01 -4.91093125e-01
-1.99261196e-01 2.67046959e-01 -9.42857835e-01
6.40369049e-01 -7.60822615e-01 -1.05244616e-01
9.08361617e-01 -1.41934436e-01 3.93362159e-01
-6.80446268e-01 -6.85916475e-01 2.57898168e-01
8.88031115e-01 -3.46377050e-02 -4.58476792e-01
-3.56918928e-01 9.02079949e-01 2.42612129e-01
-1.06460018e-01 -9.61470441e-01 2.53457797e-01
-8.31424939e-01 -5.36304706e-01 1.45292234e-01
-2.53856164e-01 2.15815084e-01 9.42857835e-01
-7.53655911e-01 -3.26447296e-01 -5.70469044e-01
4.83545806e-01 -1.75841799e-01 8.57474848e-01
6.28301155e-02 -6.87254888e-01 -7.23694062e-01
4.75008390e-01 5.51736868e-01 6.85531515e-01
-8.19558334e-01 5.68643693e-01 -7.04874976e-02
-7.78012581e-01 -8.83895659e-02 -6.21999766e-01
-5.38605963e-01 7.71907072e-01 -3.37732273e-01
-4.16792091e-01 -2.14317860e-01 8.83375463e-01
-7.23750794e-01 6.32652191e-01 -2.75564863e-01
-7.29209945e-01 -6.84290038e-01 -3.02088630e-11
-1.52782349e-02 -9.82943629e-01 -1.83271377e-01
6.84758209e-01 -3.79682377e-01 -6.22051033e-01
8.77597420e-01 -4.13475662e-01 -2.42612129e-01
-4.14030896e-01 -9.09703020e-01 -3.19191567e-02
-1.16801825e-01 -2.54779128e-04 9.93155209e-01
-1.28837123e-01 9.58680506e-01 2.53638883e-01
2.16767230e-01 -3.59951100e-02 -9.75559491e-01
-5.15459011e-01 8.54010258e-01 7.04874976e-02
-9.44147968e-01 2.72278167e-01 1.85604995e-01
-2.88407691e-01 9.56946348e-01 3.27824692e-02
9.92652737e-01 1.14348701e-01 -3.95590402e-02
3.24379445e-01 -8.68059813e-01 -3.75832590e-01
-9.36553160e-01 -2.88084845e-01 -1.99688006e-01
-4.75008390e-01 -5.51736868e-01 6.85531515e-01
-3.35438019e-01 7.07484168e-01 6.22051033e-01
6.28437276e-01 2.02746000e-01 -7.50973135e-01
4.37103264e-01 -8.86123338e-01 -1.54033002e-01
-2.42239077e-01 -6.14296003e-01 7.50973135e-01
5.86220879e-02 8.18068650e-01 -5.72125104e-01
7.53655911e-01 3.26447296e-01 -5.70469044e-01
-6.05994822e-01 6.13117999e-01 -5.06810217e-01
-9.36703183e-01 3.48586370e-01 -3.27824693e-02
1.16801825e-01 2.54779053e-04 9.93155209e-01
8.19558334e-01 -5.68643693e-01 -7.04874977e-02
1.27326559e-01 -4.19509882e-01 8.98776616e-01
3.70372244e-01 5.37855155e-01 -7.57321750e-01
-7.85645291e-01 2.42772496e-01 5.69054472e-01
7.09144824e-01 1.74597535e-01 6.83102715e-01
1.52782349e-02 9.82943629e-01 -1.83271377e-01
4.39024775e-01 8.01649258e-02 -8.94891519e-01
-1.27326559e-01 4.19509882e-01 8.98776616e-01
8.56581759e-01 -4.92485049e-01 1.54033002e-01
4.13019518e-01 -7.23853216e-01 -5.52676577e-01
-4.10578887e-01 1.53706122e-01 -8.98776616e-01
-5.60286394e-01 -3.35474177e-01 7.57321750e-01
4.22393849e-01 -7.96709487e-01 4.32246955e-01
-3.46969325e-01 -9.16371643e-01 1.99688006e-01
5.80783894e-01 4.39017779e-01 -6.85531515e-01
-1.77145748e-01 -9.83389275e-01 3.95590401e-02
-4.46720271e-01 -3.08113416e-01 -8.39944714e-01
7.27736886e-01 6.35521487e-01 -2.57898168e-01
9.22456538e-02 5.60739427e-01 -8.22837793e-01
5.85421584e-01 -7.62460212e-01 2.75564863e-01
-3.73641437e-01 -7.31407647e-01 5.70469044e-01
-4.22393849e-01 7.96709487e-01 4.32246955e-01
1.01123440e-01 -7.58103547e-01 6.44246118e-01
-5.65465041e-01 -5.64557697e-02 8.22837793e-01
-5.86781343e-01 -6.43828547e-01 4.91093125e-01
6.79786695e-01 5.44717901e-01 -4.91093125e-01
-6.96168246e-01 4.58146673e-01 5.52676577e-01
1.37610569e-01 7.70830476e-01 6.21999766e-01
-7.27736886e-01 -6.35521487e-01 -2.57898168e-01
4.46720271e-01 3.08113416e-01 -8.39944714e-01
-5.73403640e-01 6.43701538e-01 5.06810217e-01
2.34924042e-01 -5.81044148e-01 7.79229358e-01
-2.16767230e-01 3.59951101e-02 -9.75559491e-01
-9.22456539e-02 -5.60739427e-01 -8.22837793e-01
-7.18627652e-01 6.87384804e-01 1.05244616e-01
8.18106187e-01 2.74872864e-01 5.05120951e-01
4.84369252e-01 8.00800785e-01 3.52284729e-01
-1.58190035e-01 -9.08517369e-01 -3.86745528e-01
9.67817602e-01 1.78963205e-01 1.76921622e-01
8.31424939e-01 5.36304705e-01 1.45292234e-01
2.21589981e-02 -2.18615321e-01 9.75559491e-01
3.73641437e-01 7.31407647e-01 5.70469044e-01
-2.34924042e-01 5.81044148e-01 7.79229358e-01
-4.79616778e-01 -6.47110015e-01 -5.92635111e-01
3.35855891e-01 4.26255437e-01 8.39944714e-01
4.14030896e-01 9.09703020e-01 -3.19191566e-02
8.52400703e-01 5.10144293e-01 -1.14742504e-01
-2.18170908e-02 -8.88438544e-01 4.58476792e-01
2.40349327e-01 4.02343129e-01 -8.83375463e-01
9.34156020e-01 3.55434519e-01 3.19191566e-02
-2.95130362e-01 6.19398023e-01 -7.27491690e-01
-1.01123440e-01 7.58103547e-01 6.44246119e-01
-5.61671217e-01 -7.28817631e-01 -3.91599674e-01
6.96168246e-01 -4.58146673e-01 5.52676577e-01
-7.67051375e-03 -1.16549965e-01 -9.93155209e-01
1.06460018e-01 9.61470441e-01 2.53457797e-01
8.29939612e-01 4.32545617e-01 -3.52284729e-01
-5.85421584e-01 7.62460212e-01 2.75564863e-01
-2.40052983e-01 -9.54501600e-01 -1.76921622e-01
2.18170908e-02 8.88438543e-01 4.58476792e-01
-5.03765519e-01 5.14807370e-01 -6.93681248e-01
-8.18106187e-01 -2.74872864e-01 5.05120951e-01
7.78012581e-01 8.83895659e-02 -6.21999766e-01
5.61671217e-01 7.28817631e-01 -3.91599674e-01
-5.75893635e-02 9.97627312e-01 3.77254732e-02
-5.63237501e-01 -8.18289481e-01 1.14742504e-01
8.83907428e-01 2.03925111e-01 -4.20858892e-01
8.88030634e-01 3.54348102e-01 2.92982960e-01
-5.64955383e-01 2.71342998e-01 -7.79229358e-01
-6.43371745e-03 -6.14025645e-01 7.89259853e-01
-2.05184141e-01 8.64855007e-01 4.58176043e-01
7.29209945e-01 6.84290038e-01 2.34930239e-11
7.67051377e-03 1.16549965e-01 -9.93155209e-01
2.59636705e-01 8.69175802e-01 4.20858892e-01
6.13195169e-01 -3.25663860e-02 -7.89259853e-01
-5.88013286e-01 -7.95695006e-01 -1.45292234e-01
-1.37610569e-01 -7.70830476e-01 6.21999766e-01
2.42239077e-01 6.14296003e-01 7.50973135e-01
-8.83907428e-01 -2.03925111e-01 -4.20858892e-01
-6.28437276e-01 -2.02746000e-01 -7.50973135e-01
-8.29939612e-01 -4.32545617e-01 -3.52284729e-01
-7.68282291e-01 4.72128046e-01 -4.32246955e-01
-7.09144824e-01 -1.74597535e-01 6.83102715e-01
2.19271878e-01 6.96627967e-01 -6.83102715e-01
-5.99409111e-01 3.33863085e-01 7.27491690e-01
5.88013286e-01 7.95695006e-01 -1.45292234e-01
4.10578887e-01 -1.53706121e-01 -8.98776616e-01
2.11780761e-01 -9.59530977e-01 -1.85604995e-01
-6.76257204e-01 -4.37561218e-01 5.92635111e-01
-3.67180622e-01 3.98135748e-01 -8.40634473e-01
-7.63009939e-01 -5.14262121e-01 3.91599674e-01
-1.92398641e-01 7.99474684e-01 -5.69054472e-01
9.48565661e-01 -1.89447893e-01 -2.53638883e-01
5.99409111e-01 -3.33863085e-01 7.27491690e-01
8.45712002e-01 -3.78841753e-01 3.75832590e-01
-3.35855891e-01 -4.26255437e-01 8.39944714e-01
-8.88031115e-01 3.46377050e-02 -4.58476792e-01
-4.10017973e-01 -8.63739687e-01 -2.92982960e-01
-2.59636705e-01 -8.69175802e-01 4.20858892e-01
3.44494321e-01 -4.00870755e-05 9.38788401e-01
5.63237501e-01 8.18289481e-01 1.14742504e-01
-3.44494321e-01 4.00869671e-05 9.38788401e-01
2.53856164e-01 -2.15815084e-01 9.42857835e-01
9.81930328e-01 -4.71639000e-02 1.83271377e-01
3.46969325e-01 9.16371643e-01 1.99688006e-01
-2.19271878e-01 -6.96627967e-01 -6.83102715e-01
-1.44784589e-01 4.93735058e-01 -8.57474848e-01
5.86781343e-01 6.43828547e-01 4.91093125e-01
-8.39722658e-02 9.15540753e-01 -3.93362159e-01
5.75893636e-02 -9.97627312e-01 3.77254731e-02
2.34916833e-01 1.87965397e-01 -9.53668229e-01
1.99261196e-01 -2.67046959e-01 -9.42857835e-01
-2.21589981e-02 2.18615321e-01 9.75559491e-01
6.43371751e-03 6.14025645e-01 7.89259853e-01
-4.39024775e-01 -8.01649257e-02 -8.94891519e-01
4.16792091e-01 2.14317859e-01 8.83375463e-01
-5.80783894e-01 -4.39017779e-01 -6.85531515e-01
7.63009939e-01 5.14262121e-01 3.91599674e-01
-5.86220879e-02 -8.18068650e-01 -5.72125104e-01
-8.52400703e-01 -5.10144293e-01 -1.14742504e-01
2.18334157e-02 3.43801747e-01 -9.38788401e-01
-8.20140121e-01 -6.56111328e-03 5.72125104e-01
-9.91957706e-01 1.20816796e-01 -3.77254732e-02
6.81878793e-01 -1.06340097e-01 7.23694062e-01
5.15459011e-01 -8.54010258e-01 7.04874975e-02
2.05184141e-01 -8.64855007e-01 4.58176042e-01
3.56918928e-01 -9.02079949e-01 2.42612129e-01
-3.74018518e-01 3.91719072e-01 8.40634473e-01
-8.56581759e-01 4.92485049e-01 1.54033002e-01
-4.83545806e-01 1.75841799e-01 8.57474848e-01
1.44784588e-01 -4.93735058e-01 -8.57474848e-01
-9.92652737e-01 -1.14348701e-01 -3.95590401e-02
2.88407691e-01 -9.56946348e-01 3.27824692e-02
-2.11780761e-01 9.59530977e-01 -1.85604995e-01
-6.28301156e-02 6.87254888e-01 -7.23694062e-01
-9.16728328e-01 -1.00185176e-01 3.86745528e-01
4.79616778e-01 6.47110015e-01 -5.92635111e-01
-2.34916833e-01 -1.87965397e-01 -9.53668229e-01
-7.50153087e-01 1.49054639e-01 -6.44246119e-01
9.36553160e-01 2.88084845e-01 -1.99688006e-01
1.07878735e-01 4.33048897e-01 8.94891519e-01
-9.08361617e-01 1.41934436e-01 3.93362160e-01
2.40052984e-01 9.54501600e-01 -1.76921622e-01
2.02501998e-01 2.22508089e-01 9.53668229e-01
5.64955383e-01 -2.71342998e-01 -7.79229358e-01
7.23750794e-01 -6.32652191e-01 -2.75564863e-01
-3.26263296e-01 -7.99002557e-01 -5.05120951e-01
8.50081883e-01 -2.59683474e-01 -4.58176043e-01
-2.02501998e-01 -2.22508089e-01 9.53668229e-01
6.76257204e-01 4.37561218e-01 5.92635111e-01
-7.36151117e-01 5.86530855e-01 3.37732273e-01
-6.81878793e-01 1.06340097e-01 7.23694062e-01
4.81782360e-01 -5.35436350e-01 6.93681248e-01
5.73403640e-01 -6.43701538e-01 5.06810217e-01
-1.07878735e-01 -4.33048897e-01 8.94891519e-01
-6.84758209e-01 3.79682377e-01 -6.22051033e-01
-6.13195169e-01 3.25663861e-02 -7.89259853e-01
1.58190035e-01 9.08517369e-01 -3.86745528e-01
-8.50081883e-01 2.59683474e-01 -4.58176043e-01
-4.13019518e-01 7.23853216e-01 -5.52676577e-01
-4.81782360e-01 5.35436350e-01 6.93681248e-01
4.10017973e-01 8.63739687e-01 -2.92982960e-01
-9.66289991e-01 -4.51973216e-02 -2.53457797e-01
9.44147968e-01 -2.72278167e-01 1.85604995e-01
1.28837123e-01 -9.58680506e-01 2.53638883e-01
-9.48565661e-01 1.89447893e-01 -2.53638883e-01
2.95130361e-01 -6.19398023e-01 -7.27491690e-01
-9.34156020e-01 -3.55434519e-01 3.19191567e-02
-2.18334158e-02 -3.43801746e-01 -9.38788401e-01
6.05994822e-01 -6.13117999e-01 -5.06810217e-01
9.36703183e-01 -3.48586370e-01 -3.27824693e-02
1.92398641e-01 -7.99474684e-01 -5.69054472e-01
7.68282291e-01 -4.72128046e-01 -4.32246955e-01
7.18627652e-01 -6.87384804e-01 1.05244616e-01
6.80446268e-01 6.85916475e-01 2.57898168e-01
7.50153087e-01 -1.49054638e-01 -6.44246119e-01
-8.88030634e-01 -3.54348102e-01 2.92982960e-01
-6.40369049e-01 7.60822615e-01 -1.05244616e-01
3.74018518e-01 -3.91719072e-01 8.40634473e-01
9.16728328e-01 1.00185176e-01 3.86745528e-01
5.60286394e-01 3.35474177e-01 7.57321750e-01
5.65465041e-01 5.64557696e-02 8.22837793e-01
