7.19316986e-02 -8.83132813e-01 4.63575248e-01
-1.14928950e-01 -7.43624305e-01 -6.58646029e-01
-3.79155018e-04 -9.53524159e-01 -3.01316612e-01
4.33205711e-01 -4.72600986e-01 7.67450779e-01
-5.30728927e-01 -7.79835975e-01 3.31937458e-01
-3.30851919e-01 -7.91711611e-01 -5.13546507e-01
3.62383894e-01 9.27559862e-01 -9.11628531e-02
-2.83602881e-01 -4.55095463e-01 -8.44072265e-01
8.05529273e-01 -4.99271571e-01 -3.19140510e-01
5.51720477e-01 2.10286138e-01 8.07083522e-01
-2.76755755e-01 9.58515451e-01 6.82227597e-02
6.86679491e-01 -7.26476688e-01 2.65119650e-02
-6.95178864e-01 -4.59591394e-02 7.17365813e-01
9.66856067e-01 -1.73883027e-01 1.86959719e-01
-6.25065492e-01 3.69383190e-01 6.87640030e-01
-6.44675485e-01 -6.91098625e-01 -3.26766566e-01
1.39866735e-01 -4.99036860e-01 -8.55219257e-01
-2.21112735e-01 5.55333117e-01 8.01694360e-01
9.82659233e-01 5.91133817e-02 -1.75745657e-01
7.02505177e-01 6.31010288e-01 3.29108360e-01
8.73550211e-01 4.73911457e-01 -1.10986581e-01
-4.40993525e-01 2.58910916e-01 8.59354046e-01
4.87673534e-01 -6.26556744e-03 8.73003314e-01
7.97175490e-01 5.12870988e-01 -3.18551035e-01
-8.83302734e-02 -5.76625445e-01 -8.12219986e-01
9.96428796e-01 3.46477307e-02 7.70009483e-02
5.14999249e-01 -7.35598443e-01 4.40080064e-01
6.62911642e-02 -1.93354675e-01 9.78886568e-01
8.66247345e-01 2.43158862e-01 4.36450530e-01
6.64493001e-01 3.44292327e-01 -6.63258780e-01
7.76504862e-01 -1.80918593e-01 6.03579597e-01
8.03156827e-01 -5.74219300e-01 1.58780410e-01
4.59495888e-01 3.11394550e-01 -8.31803715e-01
9.44386193e-01 -1.28296034e-01 -3.02778817e-01
2.28529906e-01 2.41136230e-01 -9.43200890e-01
3.92470593e-01 9.85444364e-02 -9.14470519e-01
-1.91313248e-01 1.55934333e-02 -9.81405434e-01
6.44675485e-01 6.91098625e-01 -3.26766566e-01
1.76848821e-01 -9.45349595e-01 2.73931539e-01
-1.39866735e-01 4.99036860e-01 -8.55219257e-01
-1.85816152e-01 -8.55307017e-01 4.83654834e-01
-3.92470593e-01 -9.85444363e-02 -9.14470519e-01
1.69430031e-02 1.29604238e-01 -9.91421314e-01
3.26315257e-01 8.92779756e-01 3.10584110e-01
5.66785811e-01 8.16650279e-01 -1.08794423e-01
-3.01142790e-01 8.30571975e-01 4.68468736e-01
-9.18506006e-01 -2.95668861e-01 -2.62539114e-01
-6.16703940e-01 -1.52961644e-01 -7.72191304e-01
4.62284413e-01 8.27421671e-01 -3.18852120e-01
-5.83926542e-01 -4.17105388e-01 6.96457110e-01
-7.76504862e-01 1.80918593e-01 6.03579597e-01
1.85667158e-01 -7.35036007e-01 6.52111506e-01
-6.15932986e-01 7.51338293e-01 2.36890684e-01
2.93947574e-01 -7.70446805e-01 -5.65691484e-01
-7.30392537e-01 -4.52856982e-01 5.11318897e-01
-2.35124372e-01 -6.88437088e-01 6.86127196e-01
-2.06930426e-01 -5.04215186e-01 8.38418979e-01
3.57553675e-01 -1.63718200e-01 -9.19430381e-01
6.78475951e-01 5.21937279e-01 -5.16964355e-01
2.76755755e-01 -9.58515451e-01 6.82227596e-02
3.92979269e-01 7.56286031e-01 5.23066388e-01
-4.62284413e-01 -8.27421671e-01 -3.18852120e-01
-1.59133984e-01 2.74205166e-01 -9.48413635e-01
2.83602881e-01 4.55095463e-01 -8.44072265e-01
5.74912307e-01 6.20648009e-01 5.33171263e-01
-5.15679017e-02 -3.75291292e-01 -9.25471613e-01
3.30851919e-01 7.91711612e-01 -5.13546507e-01
5.36189795e-01 -4.71738976e-01 -6.99973733e-01
9.21807852e-01 -3.36834041e-01 -1.91867710e-01
9.18506006e-01 2.95668861e-01 -2.62539114e-01
4.53152427e-01 8.83966916e-01 1.15131689e-01
-1.60188669e-01 -2.89774720e-01 9.43594025e-01
-1.76848821e-01 9.45349595e-01 2.73931539e-01
2.84739247e-01 -1.02793448e-01 9.53077407e-01
3.79154959e-04 9.53524159e-01 -3.01316612e-01
2.70861452e-02 -9.95320762e-01 9.27516649e-02
-8.73550211e-01 -4.73911457e-01 -1.10986581e-01
-3.57553675e-01 1.63718200e-01 -9.19430381e-01
-7.02505177e-01 -6.31010288e-01 3.29108360e-01
-9.45125123e-01 -1.93829556e-02 3.26132831e-01
8.40570477e-01 4.41869858e-01 3.13356233e-01
-1.85667158e-01 7.35036007e-01 6.52111506e-01
-7.35877161e-01 -2.49286252e-01 6.29556052e-01
-5.40153510e-01 4.95651191e-02 -8.40105914e-01
-7.97175490e-01 -5.12870988e-01 -3.18551035e-01
-9.44386193e-01 1.28296034e-01 -3.02778817e-01
-2.23382879e-01 -9.68752831e-01 1.07786742e-01
5.30728927e-01 7.79835975e-01 3.31937458e-01
-2.93947574e-01 7.70446805e-01 -5.65691484e-01
3.86145309e-01 3.65018777e-01 8.47143805e-01
2.21112735e-01 -5.55333117e-01 8.01694360e-01
-3.48680014e-02 -7.74800883e-01 6.31242796e-01
3.01142790e-01 -8.30571975e-01 4.68468736e-01
-2.28529906e-01 -2.41136230e-01 -9.43200890e-01
-3.53353606e-01 3.91468799e-01 -8.49643382e-01
8.47803684e-01 -3.06998339e-01 -4.32413194e-01
4.32704615e-01 -8.17630016e-01 -3.79800054e-01
7.97167284e-02 9.52253560e-01 2.94717220e-01
-6.40326818e-01 -7.59717973e-01 1.13181733e-01
-8.48398221e-01 5.25435012e-01 -6.43315043e-02
-8.03156827e-01 5.74219300e-01 1.58780410e-01
-2.84739247e-01 1.02793448e-01 9.53077407e-01
3.52089663e-01 -9.22768819e-01 -1.56622674e-01
-2.70861453e-02 9.95320762e-01 9.27516650e-02
-2.40355047e-01 3.46009950e-01 9.06921202e-01
3.32053905e-01 1.45234357e-01 9.32012164e-01
-4.94088811e-01 6.56426159e-01 -5.70071274e-01
-5.74912307e-01 -6.20648009e-01 5.33171263e-01
-5.66785811e-01 -8.16650279e-01 -1.08794423e-01
6.95178864e-01 4.59591393e-02 7.17365813e-01
-6.78475951e-01 -5.21937279e-01 -5.16964355e-01
8.48398221e-01 -5.25435012e-01 -6.43315044e-02
4.40993525e-01 -2.58910916e-01 8.59354046e-01
5.52369118e-01 -2.67650457e-01 -7.89463124e-01
5.83926542e-01 4.17105388e-01 6.96457110e-01
5.97795839e-01 -5.60833061e-01 5.72805463e-01
-8.47803684e-01 3.06998339e-01 -4.32413194e-01
1.29046118e-01 8.73143710e-01 -4.70071717e-01
-4.94543859e-01 8.67870539e-01 4.71918742e-02
6.15932986e-01 -7.51338293e-01 2.36890684e-01
-1.30143557e-01 9.84517380e-01 -1.17423369e-01
1.19414528e-01 9.87960719e-01 -9.83556924e-02
3.17630823e-01 6.39819379e-01 -6.99815838e-01
6.16703940e-01 1.52961644e-01 -7.72191304e-01
9.08281470e-01 4.06018039e-01 1.00866583e-01
9.70025680e-01 2.39616326e-01 -4.04254795e-02
2.40355047e-01 -3.46009950e-01 9.06921202e-01
-2.32292079e-02 4.21780406e-01 9.06400129e-01
-6.20280363e-01 1.59143920e-01 7.68065793e-01
-8.18394710e-01 -3.27358344e-01 -4.72299558e-01
-4.59495888e-01 -3.11394550e-01 -8.31803715e-01
1.14928950e-01 7.43624305e-01 -6.58646029e-01
5.51264704e-01 -8.15465188e-01 -1.76419529e-01
7.35877161e-01 2.49286252e-01 6.29556052e-01
-7.97167285e-02 -9.52253560e-01 2.94717220e-01
6.20280363e-01 -1.59143920e-01 7.68065793e-01
-8.66247345e-01 -2.43158862e-01 4.36450530e-01
-5.00513726e-01 -5.04482712e-01 -7.03550702e-01
-9.21807852e-01 3.36834042e-01 -1.91867710e-01
8.72997495e-01 -3.94883519e-01 2.86255522e-01
8.18394710e-01 3.27358344e-01 -4.72299558e-01
-7.71374895e-01 3.95902080e-01 4.98238939e-01
6.24740190e-01 -6.77702683e-01 -3.87838861e-01
5.40153510e-01 -4.95651190e-02 -8.40105914e-01
3.97197050e-01 -6.61348951e-01 6.36279592e-01
-5.52369118e-01 2.67650457e-01 -7.89463124e-01
7.93045844e-01 5.99344146e-01 1.08925777e-01
4.94543859e-01 -8.67870539e-01 4.71918741e-02
5.15679017e-02 3.75291292e-01 -9.25471613e-01
-5.51264703e-01 8.15465188e-01 -1.76419529e-01
9.31157400e-01 -3.59562923e-01 6.05009809e-02
-3.97197050e-01 6.61348951e-01 6.36279592e-01
-9.96428796e-01 -3.46477308e-02 7.70009484e-02
9.11218072e-01 1.05333537e-01 -3.98229444e-01
9.86163244e-01 -1.54578760e-01 -5.98957063e-02
3.48680015e-02 7.74800883e-01 6.31242796e-01
1.60188669e-01 2.89774720e-01 9.43594025e-01
8.44179307e-01 3.21436576e-02 5.35096055e-01
9.50892446e-01 2.18641992e-01 2.19087005e-01
-6.86679491e-01 7.26476688e-01 2.65119651e-02
7.30392537e-01 4.52856982e-01 5.11318897e-01
-8.48959867e-02 8.42945146e-01 -5.31259300e-01
-3.52089663e-01 9.22768819e-01 -1.56622674e-01
-5.58213303e-03 -6.14691711e-01 7.88747429e-01
2.32292079e-02 -4.21780406e-01 9.06400129e-01
1.85816152e-01 8.55307017e-01 4.83654835e-01
-4.07076934e-01 8.74406449e-01 2.64010581e-01
-1.69430032e-02 -1.29604238e-01 -9.91421314e-01
9.45125123e-01 1.93829555e-02 3.26132831e-01
-7.38261006e-01 -6.65035580e-01 -1.12687293e-01
-7.18268153e-01 5.87714421e-01 3.72400879e-01
-3.17630823e-01 -6.39819379e-01 -6.99815838e-01
7.14143059e-01 -7.03461306e-02 -6.96456384e-01
-8.05529273e-01 4.99271571e-01 -3.19140510e-01
3.26876602e-01 -5.95744065e-01 -7.33649167e-01
-9.08281470e-01 -4.06018039e-01 1.00866583e-01
-5.14848906e-01 -6.73759592e-01 -5.30074436e-01
-7.22841032e-01 6.65430913e-01 -1.86286458e-01
2.54227116e-01 9.23225761e-01 -2.88136993e-01
8.48959867e-02 -8.42945146e-01 -5.31259300e-01
-8.40570477e-01 -4.41869858e-01 3.13356233e-01
-3.62383894e-01 -9.27559862e-01 -9.11628532e-02
6.40326818e-01 7.59717974e-01 1.13181733e-01
-8.51499958e-01 8.92282759e-02 -5.16707287e-01
-5.36189795e-01 4.71738976e-01 -6.99973733e-01
7.38261006e-01 6.65035581e-01 -1.12687293e-01
5.14848906e-01 6.73759592e-01 -5.30074436e-01
-9.82659233e-01 -5.91133817e-02 -1.75745657e-01
-8.44179307e-01 -3.21436577e-02 5.35096055e-01
3.53353606e-01 -3.91468799e-01 -8.49643382e-01
-5.97795839e-01 5.60833061e-01 5.72805463e-01
1.91313248e-01 -1.55934333e-02 -9.81405434e-01
-7.20980945e-01 2.92011409e-01 -6.28423551e-01
-7.87096879e-01 -1.36265099e-01 -6.01590107e-01
-9.50892446e-01 -2.18641992e-01 2.19087005e-01
-4.33205711e-01 4.72600985e-01 7.67450779e-01
4.07076934e-01 -8.74406449e-01 2.64010581e-01
5.58213307e-03 6.14691711e-01 7.88747429e-01
-7.14143059e-01 7.03461307e-02 -6.96456384e-01
-3.92979269e-01 -7.56286031e-01 5.23066388e-01
5.00513726e-01 5.04482712e-01 -7.03550702e-01
-6.62911641e-02 1.93354675e-01 9.78886568e-01
8.91683249e-01 -1.94462061e-01 4.08760646e-01
-4.87673534e-01 6.26556740e-03 8.73003314e-01
-9.66856067e-01 1.73883027e-01 1.86959719e-01
1.10216114e-01 -6.89781466e-01 -7.15579716e-01
1.13342304e-01 4.97089579e-02 9.92311441e-01
6.25065492e-01 -3.69383190e-01 6.87640030e-01
2.23382880e-01 9.68752831e-01 1.07786742e-01
7.87096879e-01 1.36265099e-01 -6.01590107e-01
-7.19316986e-02 8.83132813e-01 4.63575248e-01
-1.13342304e-01 -4.97089581e-02 9.92311441e-01
2.35124372e-01 6.88437088e-01 6.86127196e-01
-9.70025680e-01 -2.39616326e-01 -4.04254794e-02
-2.54227116e-01 -9.23225761e-01 -2.88136993e-01
1.30143557e-01 -9.84517380e-01 -1.17423369e-01
7.18268153e-01 -5.87714421e-01 3.72400879e-01
-1.19414528e-01 -9.87960719e-01 -9.83556924e-02
-4.32704615e-01 8.17630016e-01 -3.79800054e-01
-1.10216114e-01 6.89781466e-01 -7.15579716e-01
8.83302733e-02 5.76625445e-01 -8.12219986e-01
-3.32053905e-01 -1.45234357e-01 9.32012164e-01
-3.26876602e-01 5.95744065e-01 -7.33649167e-01
-6.64493001e-01 -3.44292327e-01 -6.63258780e-01
2.06930426e-01 5.04215185e-01 8.38418979e-01
4.19243787e-01 5.67269820e-01 7.08829464e-01
4.94088811e-01 -6.56426159e-01 -5.70071274e-01
-5.14999249e-01 7.35598443e-01 4.40080064e-01
-8.72997494e-01 3.94883519e-01 2.86255522e-01
-4.53152427e-01 -8.83966916e-01 1.15131689e-01
-1.29046118e-01 -8.73143710e-01 -4.70071717e-01
-3.26315257e-01 -8.92779756e-01 3.10584109e-01
7.20980945e-01 -2.92011408e-01 -6.28423551e-01
-6.91971934e-01 4.95867104e-01 -5.24681757e-01
-6.24740190e-01 6.77702683e-01 -3.87838861e-01
-5.51720477e-01 -2.10286138e-01 8.07083522e-01
7.22841032e-01 -6.65430913e-01 -1.86286459e-01
8.51499958e-01 -8.92282758e-02 -5.16707287e-01
2.22315392e-01 -9.09194253e-01 -3.52053788e-01
-9.31157400e-01 3.59562923e-01 6.05009809e-02
7.71374895e-01 -3.95902080e-01 4.98238939e-01
-4.19243787e-01 -5.67269820e-01 7.08829464e-01
1.59133984e-01 -2.74205166e-01 -9.48413635e-01
-2.22315392e-01 9.09194253e-01 -3.52053788e-01
-9.86163244e-01 1.54578760e-01 -5.98957062e-02
-9.11218072e-01 -1.05333536e-01 -3.98229444e-01
-3.86145309e-01 -3.65018777e-01 8.47143805e-01
-7.93045844e-01 -5.99344146e-01 1.08925777e-01
-8.91683249e-01 1.94462061e-01 4.08760646e-01
6.91971934e-01 -4.95867104e-01 -5.24681757e-01
