-6.89932308e-01 1.73009029e-01 -7.02896351e-01
-3.17799483e-01 3.51370648e-01 -8.80649752e-01
-9.56152825e-01 9.38118911e-02 2.77434618e-01
6.89882144e-01 7.21337408e-01 6.10876874e-02
-9.52726941e-01 2.65277203e-01 -1.48118475e-01
7.51745836e-01 -1.05430588e-01 6.50968890e-01
7.63736035e-01 3.33618257e-01 5.52632455e-01
-7.59772228e-01 -6.46088303e-01 -7.29321044e-02
-9.10024433e-01 4.07419782e-01 7.65700437e-02
-3.86332031e-01 8.08167677e-01 -4.44534618e-01
4.15014573e-01 4.48691539e-01 7.91475887e-01
-4.91801101e-01 8.18360730e-01 2.97343535e-01
-7.23737918e-01 2.91837536e-01 6.25324753e-01
-6.15703823e-01 -7.56760271e-01 -2.19605675e-01
5.88155369e-01 -6.99582525e-01 4.05781652e-01
1.86502477e-01 6.78286248e-01 -7.10735102e-01
1.69106823e-01 -8.53194369e-01 -4.93424143e-01
-4.27794665e-01 -2.32637472e-01 8.73423971e-01
4.10565173e-02 5.56605932e-01 -8.29761978e-01
2.59816508e-03 -4.34450108e-01 9.00691323e-01
7.33935453e-01 4.91476030e-01 -4.68817237e-01
-8.49686767e-01 3.98408914e-01 -3.45402066e-01
9.13271571e-01 3.35065920e-02 -4.05972223e-01
3.49907739e-01 7.50655487e-01 -5.60428266e-01
9.51629708e-01 2.12073666e-01 -2.22318194e-01
4.00467598e-01 -7.53977376e-01 5.20715726e-01
-6.37553134e-01 -6.42066596e-01 4.25767165e-01
8.28232071e-02 -1.65499898e-01 -9.82727970e-01
-1.66047660e-01 -5.55850759e-01 8.14528974e-01
-8.59266277e-01 1.91255672e-01 4.74426471e-01
-5.99006214e-01 1.44989451e-01 7.87506418e-01
-9.80534277e-01 1.84393345e-01 6.74602479e-02
-1.65452698e-01 3.51674563e-01 9.21382516e-01
-2.25645387e-01 -8.29095692e-01 -5.11556146e-01
-7.72350622e-01 -5.64128450e-01 -2.91953925e-01
-4.34125659e-01 -8.89148720e-01 -1.44753719e-01
-9.16533258e-01 1.69953689e-01 -3.62054376e-01
1.39953261e-01 8.94616114e-01 4.24346517e-01
-2.42889948e-01 9.20714251e-01 -3.05429563e-01
-9.03520049e-01 3.21337419e-01 2.83534306e-01
6.58505958e-01 -3.38687708e-02 -7.51814791e-01
7.34682674e-01 -4.88639349e-01 4.70609225e-01
3.93230696e-01 6.52920272e-01 6.47348218e-01
-7.81386668e-01 6.23927376e-01 1.21308467e-02
2.40793256e-01 1.48931426e-01 9.59079740e-01
-5.36200526e-01 -5.59220949e-01 6.32266576e-01
-3.14220481e-01 9.27325484e-01 2.03294320e-01
-5.32901189e-01 -1.72587929e-01 -8.28392127e-01
-2.30013783e-01 -8.06767759e-01 5.44261674e-01
-8.28232183e-01 -1.90278286e-01 -5.27094370e-01
4.33521952e-01 -8.51672307e-01 2.94474515e-01
9.52874065e-01 -2.91868124e-01 8.27324263e-02
2.13017688e-02 -8.57428837e-01 5.14163009e-01
9.08117395e-01 -1.96386106e-01 -3.69806955e-01
3.01381788e-03 2.77904144e-02 9.99607381e-01
-3.58627509e-01 -8.77066490e-01 3.19598382e-01
3.73381336e-01 -8.25240997e-01 -4.23755116e-01
2.24958604e-01 -9.72627081e-01 -5.82599814e-02
-5.99745727e-01 -8.00025960e-01 1.63342336e-02
9.47035299e-01 -1.59089574e-01 2.78951710e-01
1.86058340e-01 -7.54557276e-01 6.29306225e-01
-7.12002708e-01 -4.32621180e-01 5.53074114e-01
-9.55422420e-01 -1.30625818e-01 2.64772917e-01
-6.19767057e-01 5.28971471e-01 5.79718843e-01
-1.84347493e-01 -9.70913876e-01 1.52792741e-01
-7.24957346e-01 -6.66113002e-01 1.75306936e-01
-8.33719356e-01 5.45501250e-02 -5.49489100e-01
-5.34681655e-01 5.30546704e-02 -8.43388208e-01
4.94037319e-01 -4.11540283e-01 7.65872380e-01
4.93749618e-01 7.88729698e-01 -3.66216905e-01
-3.98096991e-01 2.24977539e-01 8.89325533e-01
8.66942977e-01 2.65353098e-01 -4.21897915e-01
8.70188521e-01 -3.80173980e-01 3.13432398e-01
1.90386826e-01 -9.40380435e-01 -2.81854950e-01
8.89061683e-01 -1.98169357e-02 4.57356358e-01
5.84717865e-01 -1.77069338e-01 7.91674931e-01
7.78586173e-01 1.19628762e-01 6.16027319e-01
7.63271234e-02 9.97069393e-01 -4.77632288e-03
-8.50136813e-01 -2.77668683e-01 4.47400505e-01
9.96251063e-01 -7.64133010e-02 4.05554740e-02
4.41495041e-01 2.27686581e-01 8.67892173e-01
9.21658226e-01 3.83467199e-01 -5.91394907e-02
9.70651735e-01 6.73449823e-02 2.30864748e-01
7.37633109e-01 3.09292361e-01 -6.00196943e-01
-6.29560844e-01 4.21133377e-01 -6.52917018e-01
-2.97465949e-01 9.53204671e-01 -5.39566688e-02
-8.75177586e-02 9.83637818e-01 -1.57460926e-01
7.16758546e-01 6.43196276e-01 2.69354839e-01
-2.41345425e-01 -9.25580854e-01 -2.91645792e-01
-5.81593981e-01 7.32842658e-01 -3.53112671e-01
-4.67466127e-01 7.24396749e-01 5.06675611e-01
3.57403258e-01 -6.13975572e-01 7.03773225e-01
-5.08460622e-03 -7.87221236e-01 -6.16654058e-01
-9.65844136e-01 -1.92906010e-01 -1.73014447e-01
8.07472994e-01 -1.33833078e-01 -5.74524559e-01
-5.75368388e-01 -5.39943675e-01 -6.14342366e-01
5.53015520e-02 -9.59839884e-01 2.75049031e-01
-4.06140811e-01 -9.09478729e-01 8.88903519e-02
-6.32642300e-01 7.67943403e-01 -1.00120404e-01
-1.42609404e-01 -5.00241607e-01 -8.54064392e-01
1.03394276e-01 -6.07117212e-01 7.87856517e-01
-1.84739133e-01 -6.86643902e-01 -7.03133636e-01
6.09013075e-01 -4.79210464e-01 -6.32031991e-01
8.46763207e-01 4.23929334e-01 3.21361078e-01
-8.79391329e-01 -4.43928551e-02 4.74024108e-01
-1.21052777e-01 1.88473982e-01 -9.74590454e-01
5.98204043e-01 -7.96356918e-01 -8.92801119e-02
2.12729389e-01 5.87668939e-01 7.80631942e-01
5.02118958e-01 8.63444640e-01 4.83338840e-02
9.56839659e-01 -2.49198697e-01 -1.49529851e-01
2.96410271e-01 9.54781139e-01 2.30208848e-02
2.11694433e-01 -7.18953334e-02 9.74686242e-01
-1.43129186e-01 -9.18460711e-01 3.68709017e-01
-9.29109892e-01 -6.81711822e-02 -3.63468429e-01
-8.59350101e-01 -5.05200725e-01 7.93194289e-02
-3.39034523e-01 -1.08953224e-01 -9.34445639e-01
6.19756132e-01 2.01777918e-01 -7.58412666e-01
2.75737142e-01 -2.86774919e-01 -9.17460376e-01
-1.23275298e-01 9.87117071e-01 1.01974563e-01
-2.19346923e-01 -3.39754828e-01 9.14577343e-01
-5.97377824e-02 7.22569956e-01 -6.88711590e-01
-6.87872303e-01 -3.00764966e-01 -6.60587515e-01
-3.51829387e-01 4.36414376e-01 8.28102620e-01
-9.30297417e-02 9.38627271e-01 3.32143639e-01
8.92607080e-01 2.06291351e-01 4.00866566e-01
8.93582470e-02 7.41483990e-02 -9.93237313e-01
3.18617279e-02 2.53791265e-01 9.66731782e-01
2.53942187e-01 -9.51634157e-01 1.72941947e-01
-7.57967246e-01 4.92407631e-02 6.50429594e-01
-4.31042784e-01 2.83375814e-03 9.02325300e-01
-7.04722535e-01 5.35763243e-01 -4.65106004e-01
3.58877660e-01 8.14071798e-01 4.56605913e-01
-1.26937891e-01 -2.67230976e-01 -9.55237614e-01
2.28538868e-01 3.73974748e-01 8.98837084e-01
4.02408116e-01 8.97459798e-01 -1.80639379e-01
5.80497068e-01 4.51643841e-01 -6.77525999e-01
5.40599264e-01 7.98147740e-01 2.65910419e-01
1.69785420e-01 -2.88453300e-01 9.42319128e-01
2.49740904e-01 4.58211413e-01 -8.53037484e-01
8.60514341e-01 -4.94958028e-01 1.20552710e-01
5.96966278e-02 -4.01984232e-01 -9.13701185e-01
2.39482879e-01 -5.09420022e-01 -8.26525335e-01
-4.58889016e-04 6.91674371e-01 7.22205652e-01
-3.37308382e-01 1.23500746e-01 -9.33259639e-01
8.44410490e-01 5.24911666e-01 1.06939161e-01
-2.37414107e-01 -1.01921268e-01 9.66045340e-01
-1.03443854e-01 4.05098080e-01 -9.08403312e-01
-1.27818724e-01 -3.76290094e-02 -9.91085347e-01
-6.77173663e-02 -7.22558228e-01 6.87985757e-01
3.89011625e-01 -2.37737008e-01 8.90027380e-01
-6.56111837e-01 6.50563145e-01 3.82467046e-01
2.41094303e-01 -7.16361789e-01 -6.54755277e-01
6.50451017e-01 -2.61338935e-01 -7.13175209e-01
2.91767512e-01 1.99045043e-01 -9.35550788e-01
-4.34994660e-01 -8.18925496e-01 -3.74359980e-01
4.09647901e-01 -5.83068165e-01 -7.01587383e-01
2.88792912e-01 -4.90213799e-02 -9.56137600e-01
-4.09721777e-01 -7.04927732e-01 -5.78973183e-01
7.94238042e-01 8.96157783e-02 -6.00963018e-01
8.52304138e-01 4.46631656e-01 -2.72207284e-01
5.57157672e-01 6.37149816e-01 -5.32554851e-01
7.42664641e-01 -6.12163466e-01 2.71489252e-01
-7.50016256e-01 -1.92213131e-01 6.32873138e-01
-3.56334970e-01 -5.52759779e-01 -7.53317336e-01
7.07976414e-01 5.32165194e-01 4.64290473e-01
-7.48641219e-01 -4.47058817e-01 -4.89569667e-01
1.73978186e-01 9.63112372e-01 -2.05287597e-01
-9.97472381e-01 -4.70447755e-02 5.32529408e-02
-5.16343313e-01 2.84465861e-01 -8.07756547e-01
-4.49775320e-01 -7.45294541e-01 4.92178352e-01
6.07712020e-01 7.79968946e-01 -1.49438342e-01
-6.54590304e-01 7.39451445e-01 1.57225114e-01
6.89834106e-01 6.50584615e-01 -3.17595558e-01
-6.11059645e-01 -6.64596674e-01 -4.30025248e-01
-3.26292599e-01 -6.53411070e-01 6.83071998e-01
1.85882475e-01 7.66428089e-01 6.14841753e-01
-4.20422053e-01 5.95462119e-01 6.84591435e-01
-2.20495612e-01 -9.72998081e-01 -6.82686157e-02
-1.44999355e-02 -9.83927723e-01 -1.77990331e-01
7.49033117e-01 -6.62332506e-01 1.63538181e-02
-8.79625465e-01 -3.26897999e-01 -3.45542320e-01
2.18346263e-02 4.88397711e-01 8.72345026e-01
5.47815605e-01 6.90667452e-01 4.72093160e-01
2.67518279e-01 8.80284681e-01 -3.91829905e-01
4.43830730e-01 3.37907435e-01 -8.29960461e-01
6.95973490e-01 -5.71967779e-01 -4.34139877e-01
-2.84054943e-01 8.56007476e-01 4.31924870e-01
9.81572267e-02 3.11605712e-01 -9.45129175e-01
8.51994108e-03 9.30510764e-01 -3.66162153e-01
-7.89983801e-01 2.95912546e-01 -5.36993754e-01
-3.23632104e-01 -3.39256441e-01 -8.83273416e-01
-7.91125645e-01 -5.08864150e-01 3.39379578e-01
-7.81853330e-01 4.36127360e-01 4.45527942e-01
7.75312132e-01 -3.54284754e-01 -5.22854199e-01
9.88999407e-01 1.47808671e-01 -5.65342228e-03
-8.02505157e-01 5.47887962e-01 2.36223230e-01
5.02342508e-01 -6.82827969e-01 -5.30473822e-01
8.34311135e-01 -2.49206223e-01 4.91752194e-01
2.15099735e-02 -9.98632811e-01 4.76827245e-02
6.18015687e-01 2.87442697e-01 7.31730406e-01
9.41407748e-01 2.94899166e-01 1.63658002e-01
-4.51957162e-01 8.67902494e-01 -2.06100381e-01
-5.55548279e-01 -7.90958074e-01 2.56425053e-01
4.07821851e-01 -8.91579818e-01 -1.96903363e-01
-5.10982059e-01 -3.87012365e-01 -7.67543604e-01
-5.52696097e-01 3.74915547e-01 7.44285782e-01
4.75110316e-01 7.59706401e-02 -8.76642101e-01
-7.05509079e-01 -6.60818873e-02 -7.05615396e-01
7.48483043e-01 -6.27510715e-01 -2.14491330e-01
8.49663607e-01 -4.20256608e-01 -3.18525906e-01
-8.69993491e-01 4.74598201e-01 -1.33666254e-01
-2.41372325e-01 7.38377923e-01 6.29708104e-01
5.62127028e-01 -5.68179721e-01 6.00986679e-01
-2.02779686e-01 1.26260689e-01 9.71048249e-01
-4.88174395e-01 8.71318952e-01 4.98548347e-02
-1.50373742e-01 8.45088769e-01 -5.13041140e-01
-5.22545131e-01 6.37579961e-01 -5.66072424e-01
-6.09407292e-01 -9.70235132e-02 7.86897011e-01
-5.89878056e-01 -3.38481274e-01 7.33125619e-01
6.80738651e-01 -3.44711099e-01 6.46349785e-01
-3.53466084e-02 -9.15492591e-01 -4.00785520e-01
3.35755648e-01 9.08803370e-01 2.47669098e-01
3.95636596e-01 5.74068827e-01 -7.16879939e-01
6.07011971e-01 -7.77680442e-01 1.63560296e-01
-4.32156213e-01 5.12769238e-01 -7.41828438e-01
1.11245583e-01 9.70203609e-01 2.15231747e-01
-9.06855758e-01 -3.48054593e-01 2.37637102e-01
-9.86643267e-01 4.15992307e-02 -1.57496682e-01
8.79511377e-01 -4.65014074e-01 -1.01112090e-01
1.02353507e-01 8.27977547e-01 -5.51339810e-01
6.18798835e-01 6.05811241e-02 7.83207975e-01
-3.42721835e-02 -1.97752758e-01 9.79651240e-01
-7.43624539e-01 6.21029856e-01 -2.47675291e-01
-3.92667168e-01 -4.56525679e-01 7.98370752e-01
7.91952963e-01 6.00434068e-01 -1.10847835e-01
4.72096643e-02 -6.25123770e-01 -7.79099992e-01
-3.05685568e-01 7.08075538e-01 -6.36541353e-01
-8.90302900e-01 -4.33361112e-01 -1.39861860e-01
4.31245262e-01 -6.00983136e-03 9.02212886e-01
4.59091142e-01 -3.80149597e-01 -8.02948250e-01
5.77274062e-01 5.00153471e-01 6.45443037e-01
2.32789977e-01 -8.80206631e-01 4.13578396e-01
-1.81735043e-01 5.80522857e-01 7.93700490e-01
-2.11330601e-01 5.71731499e-01 -7.92756632e-01
-9.60602992e-01 -2.76052444e-01 3.22204657e-02
4.81533649e-01 -1.58466583e-01 -8.61984508e-01
9.81252773e-01 -2.26020899e-02 -1.91396659e-01
5.76330449e-01 -7.53567360e-01 -3.16201597e-01
4.37286456e-01 -8.98207543e-01 4.48005038e-02
2.73523473e-01 -4.60468807e-01 8.44483353e-01
-5.24977357e-02 8.38070126e-01 5.43025940e-01
