-1.64597445e-01 8.63564753e-01 4.76616891e-01
5.54203315e-01 -7.56820322e-01 3.46528111e-01
-2.02418044e-01 -9.77941906e-01 5.15419246e-02
4.60340365e-01 3.19986376e-01 -8.28067243e-01
8.58378791e-01 5.00253199e-01 1.13721601e-01
6.37963772e-01 6.08592396e-01 4.71823678e-01
-2.08975383e-01 2.36713568e-01 9.48839344e-01
-6.99538754e-01 4.33071387e-01 5.68414269e-01
-1.16498736e-01 1.52079741e-02 9.93074465e-01
1.32658435e-01 9.53541674e-01 2.70481147e-01
9.86952602e-01 -7.57417930e-02 1.42083640e-01
5.95193265e-01 3.26129577e-01 7.34428059e-01
-7.08557216e-01 -6.57020373e-01 2.57431420e-01
-5.73014319e-01 -7.03274035e-01 -4.20785178e-01
7.45532930e-01 6.65885155e-01 2.78857225e-02
6.23387371e-01 5.34602731e-01 -5.70603217e-01
-3.50758019e-01 2.56692591e-01 -9.00598471e-01
-9.71173548e-01 2.38214519e-01 -8.70528688e-03
-5.50606418e-02 -3.22023204e-01 -9.45129227e-01
2.15380505e-01 -8.65610985e-01 -4.52027433e-01
-4.50903469e-01 -1.53515736e-01 8.79271913e-01
-5.91552324e-01 4.88951721e-01 -6.41086560e-01
-2.86765861e-04 -7.53522909e-01 6.57421654e-01
5.73014319e-01 7.03274035e-01 -4.20785178e-01
3.50758019e-01 -2.56692591e-01 -9.00598471e-01
8.25312364e-01 -5.36975672e-01 1.74690161e-01
5.60921795e-01 -3.02954134e-01 -7.70444956e-01
1.64597445e-01 -8.63564753e-01 4.76616891e-01
-8.25312364e-01 5.36975672e-01 1.74690161e-01
-2.44362135e-01 -1.84164979e-01 9.52034944e-01
-2.86625592e-01 -9.38507054e-01 -1.92484424e-01
1.16498736e-01 -1.52079740e-02 9.93074465e-01
2.11964571e-01 -7.41920063e-01 -6.36101844e-01
-8.58378791e-01 -5.00253199e-01 1.13721602e-01
-5.54203315e-01 7.56820322e-01 3.46528111e-01
9.89367776e-01 1.38406149e-01 4.46670820e-02
2.89910970e-01 -3.83649802e-02 -9.56284284e-01
7.06851579e-01 -6.54701358e-01 -2.67818859e-01
-9.23937099e-01 1.58230626e-01 3.48286308e-01
3.81624078e-01 -5.97173465e-01 7.05511878e-01
-6.90437349e-02 -9.88319870e-01 -1.35855732e-01
-4.88574257e-01 -8.36997387e-01 -2.46435665e-01
-5.08468137e-01 -7.75328344e-01 3.74601339e-01
7.74533195e-01 -6.30500569e-01 -5.06690763e-02
-5.60921795e-01 3.02954134e-01 -7.70444956e-01
-2.56189011e-01 -4.37182185e-01 -8.62112994e-01
-3.91076788e-01 4.59480067e-01 -7.97456525e-01
-2.90792041e-01 4.37972895e-01 8.50658477e-01
-6.52382367e-02 -8.77744368e-01 4.74667105e-01
-2.56495268e-01 -2.19223813e-01 -9.41355922e-01
6.90437348e-02 9.88319870e-01 -1.35855732e-01
9.23937099e-01 -1.58230626e-01 3.48286308e-01
-2.19304591e-02 -2.05865226e-01 9.78334653e-01
-9.41742770e-01 5.53179529e-02 -3.31753575e-01
3.94985240e-01 3.71575152e-01 8.40189668e-01
5.32611498e-01 -8.01645524e-01 -2.71457934e-01
8.69805102e-01 2.65280690e-01 4.16011172e-01
9.41742770e-01 -5.53179529e-02 -3.31753575e-01
4.31180528e-01 -2.64007299e-01 8.62776687e-01
-7.47239419e-01 5.24207074e-02 6.62484270e-01
-2.89910970e-01 3.83649800e-02 -9.56284283e-01
-6.93657263e-01 -6.84515763e-01 -2.24226985e-01
1.03316649e-02 7.03441097e-01 -7.10678398e-01
-4.15573149e-01 9.07459631e-01 -6.17735282e-02
1.31384437e-01 -5.90784779e-01 7.96060035e-01
6.99538754e-01 -4.33071386e-01 5.68414269e-01
-4.43544705e-01 -1.07076256e-01 -8.89832935e-01
-7.06851579e-01 6.54701358e-01 -2.67818859e-01
-5.46696506e-01 7.85049833e-02 8.33642614e-01
3.40335011e-01 -8.84360548e-01 3.19497330e-01
-3.39642926e-01 4.49038310e-02 9.39482013e-01
-8.59744684e-01 2.78320823e-01 -4.28224873e-01
2.44362135e-01 1.84164979e-01 9.52034944e-01
9.80972371e-02 5.90383857e-01 8.01139151e-01
6.98103565e-01 -9.04578287e-02 -7.10259600e-01
-8.13111990e-01 2.27615017e-01 5.35761483e-01
7.79321431e-01 1.36019670e-01 -6.11683477e-01
4.15573149e-01 -9.07459631e-01 -6.17735282e-02
-9.31562931e-01 -3.06827398e-01 1.95057631e-01
-3.94985240e-01 -3.71575152e-01 8.40189668e-01
-5.65546246e-01 -8.08429894e-01 1.63090689e-01
-3.27381811e-01 9.07114716e-01 -2.64507100e-01
-6.27051901e-01 -1.23105669e-01 -7.69188407e-01
-8.85795794e-01 -3.59561497e-01 -2.93396153e-01
2.35887246e-01 6.26378526e-01 -7.42971770e-01
6.49299985e-01 -2.51492334e-01 7.17747331e-01
-1.44927394e-01 -9.17603389e-01 -3.70135140e-01
2.86625592e-01 9.38507054e-01 -1.92484424e-01
-1.94216151e-01 5.84111159e-01 -7.88095258e-01
-8.72992594e-02 -7.34691786e-02 -9.93469168e-01
8.95141221e-01 1.52444959e-01 -4.18906520e-01
-3.40335011e-01 8.84360548e-01 3.19497330e-01
-2.90023291e-01 -8.50433838e-01 4.38917802e-01
7.72615304e-01 1.94554553e-01 6.04329545e-01
2.19974311e-01 -7.31926529e-01 6.44899174e-01
2.02418044e-01 9.77941906e-01 5.15419245e-02
-3.58557399e-01 -9.05352924e-01 2.27536160e-01
-8.94552060e-01 4.45817540e-01 -3.19895312e-02
2.68176269e-01 -9.56370245e-01 1.15920051e-01
2.56189011e-01 4.37182185e-01 -8.62112994e-01
-6.41646127e-01 -3.39949790e-01 -6.87549487e-01
5.29002051e-01 5.23218070e-01 6.68131552e-01
-2.19974311e-01 7.31926529e-01 6.44899174e-01
-2.11964572e-01 7.41920063e-01 -6.36101844e-01
-5.95481695e-01 -8.01273747e-01 -5.79821108e-02
-4.60340365e-01 -3.19986376e-01 -8.28067242e-01
-8.34013751e-01 3.98647362e-01 3.81446451e-01
-6.13245970e-01 7.87652467e-01 -5.94387453e-02
-2.35887246e-01 -6.26378526e-01 -7.42971770e-01
2.08975384e-01 -2.36713568e-01 9.48839345e-01
7.47396725e-01 -4.80635641e-01 -4.58680123e-01
5.24173418e-01 -4.34906334e-01 7.32187685e-01
6.82835286e-01 -7.13745504e-01 1.55895312e-01
8.41603576e-01 -7.32449924e-02 -5.35106084e-01
3.54822925e-01 8.35185279e-01 -4.20197793e-01
8.59744684e-01 -2.78320823e-01 -4.28224873e-01
-9.53967607e-01 -9.13555542e-02 2.85657147e-01
-3.81624078e-01 5.97173465e-01 7.05511878e-01
-7.55546477e-01 -5.34108147e-01 -3.79312481e-01
8.10703943e-01 4.74274682e-01 3.43253097e-01
3.96993087e-01 -7.63997051e-01 5.08630576e-01
-5.63336004e-01 6.12779389e-01 5.54214797e-01
-7.45532930e-01 -6.65885155e-01 2.78857226e-02
3.91076787e-01 -4.59480067e-01 -7.97456525e-01
-5.95193265e-01 -3.26129577e-01 7.34428059e-01
2.03581386e-01 7.86140456e-01 -5.83556103e-01
-6.37963772e-01 -6.08592396e-01 4.71823678e-01
-7.50390520e-02 9.50469382e-01 -3.01624029e-01
1.77212620e-01 3.98354622e-01 8.99949666e-01
-1.32658435e-01 -9.53541674e-01 2.70481147e-01
-4.16988251e-01 7.76916007e-01 -4.71722645e-01
6.36249027e-01 1.11895727e-01 7.63326027e-01
-4.20843408e-01 -6.88086297e-01 -5.91124349e-01
-2.17541708e-01 -7.41368105e-01 6.34861420e-01
8.73811747e-01 1.92516064e-02 4.85883186e-01
-4.29296330e-01 -6.98694095e-01 5.72303502e-01
9.93289379e-01 -3.81175886e-02 -1.09193606e-01
-1.77212620e-01 -3.98354622e-01 8.99949666e-01
-8.73811747e-01 -1.92516063e-02 4.85883186e-01
2.56495268e-01 2.19223813e-01 -9.41355922e-01
6.08941152e-03 -8.48251588e-01 -5.29558393e-01
-7.12644883e-01 5.93643121e-01 3.73798295e-01
8.13111990e-01 -2.27615017e-01 5.35761482e-01
3.27381811e-01 -9.07114716e-01 -2.64507100e-01
4.29296330e-01 6.98694095e-01 5.72303501e-01
4.09371826e-01 9.12364683e-01 -2.32241881e-03
-7.22454990e-01 -4.14559679e-01 5.53352630e-01
-4.14503592e-01 6.33721983e-01 -6.53133320e-01
-9.86952602e-01 7.57417931e-02 1.42083640e-01
8.34013751e-01 -3.98647362e-01 3.81446451e-01
7.08557216e-01 6.57020373e-01 2.57431420e-01
-9.37598110e-01 -3.44231927e-01 -4.91340829e-02
4.88574257e-01 8.36997387e-01 -2.46435665e-01
6.27051901e-01 1.23105668e-01 -7.69188408e-01
2.86765953e-04 7.53522909e-01 6.57421654e-01
-4.51652630e-01 -5.15631255e-01 -7.28103162e-01
-6.23387371e-01 -5.34602731e-01 -5.70603217e-01
7.47239419e-01 -5.24207073e-02 6.62484270e-01
-6.82835286e-01 7.13745504e-01 1.55895312e-01
9.71173548e-01 -2.38214519e-01 -8.70528699e-03
-2.80455080e-02 9.96470789e-01 7.91165429e-02
-7.86517286e-01 -3.48062350e-01 -5.10140267e-01
8.94552059e-01 -4.45817540e-01 -3.19895313e-02
5.16382799e-01 -1.00218647e-01 -8.50473347e-01
-6.98103565e-01 9.04578286e-02 -7.10259600e-01
-1.31384437e-01 5.90784779e-01 7.96060035e-01
-6.49299985e-01 2.51492334e-01 7.17747331e-01
-3.54822925e-01 -8.35185280e-01 -4.20197793e-01
-2.68176269e-01 9.56370245e-01 1.15920051e-01
3.58557399e-01 9.05352924e-01 2.27536160e-01
8.85795794e-01 3.59561497e-01 -2.93396153e-01
-1.03316651e-02 -7.03441097e-01 -7.10678398e-01
-8.69805102e-01 -2.65280690e-01 4.16011172e-01
-8.38149149e-01 -5.27393666e-01 -1.39147072e-01
7.12644883e-01 -5.93643121e-01 3.73798295e-01
-7.79321431e-01 -1.36019670e-01 -6.11683477e-01
2.19304592e-02 2.05865227e-01 9.78334653e-01
-4.94733859e-01 8.56857853e-01 1.45027748e-01
-7.72615303e-01 -1.94554553e-01 6.04329545e-01
8.38149149e-01 5.27393666e-01 -1.39147072e-01
-6.36249027e-01 -1.11895727e-01 7.63326027e-01
5.50606417e-02 3.22023204e-01 -9.45129227e-01
-1.79440159e-01 9.79030553e-01 -9.64385434e-02
2.90792041e-01 -4.37972895e-01 8.50658477e-01
4.14503592e-01 -6.33721983e-01 -6.53133320e-01
-7.32171050e-01 2.95275152e-01 -6.13789912e-01
5.91552324e-01 -4.88951721e-01 -6.41086560e-01
-9.93289379e-01 3.81175885e-02 -1.09193606e-01
1.79440159e-01 -9.79030553e-01 -9.64385434e-02
-8.10703943e-01 -4.74274682e-01 3.43253098e-01
2.80455080e-02 -9.96470789e-01 7.91165429e-02
5.65546246e-01 8.08429894e-01 1.63090688e-01
5.95481695e-01 8.01273747e-01 -5.79821108e-02
7.32171050e-01 -2.95275152e-01 -6.13789912e-01
1.68012701e-01 -3.95336035e-01 -9.03039884e-01
7.86517286e-01 3.48062350e-01 -5.10140267e-01
-3.38494306e-02 -5.27559411e-01 -8.48843432e-01
7.50390520e-02 -9.50469382e-01 -3.01624029e-01
1.44927394e-01 9.17603389e-01 -3.70135140e-01
9.53967607e-01 9.13555542e-02 2.85657146e-01
-1.20000906e-01 1.78139792e-01 -9.76660569e-01
4.51652629e-01 5.15631255e-01 -7.28103162e-01
4.16988251e-01 -7.76916007e-01 -4.71722645e-01
4.50903469e-01 1.53515736e-01 8.79271913e-01
-7.74533195e-01 6.30500569e-01 -5.06690763e-02
1.00380477e-01 -9.52792154e-01 2.86550011e-01
5.46696506e-01 -7.85049832e-02 8.33642614e-01
-9.80972370e-02 -5.90383857e-01 8.01139151e-01
6.93657263e-01 6.84515763e-01 -2.24226985e-01
5.63336004e-01 -6.12779389e-01 5.54214797e-01
4.20843408e-01 6.88086297e-01 -5.91124349e-01
-4.09371826e-01 -9.12364683e-01 -2.32241867e-03
5.96979959e-01 -6.49845896e-01 -4.70441472e-01
-7.47396725e-01 4.80635641e-01 -4.58680123e-01
3.19173767e-01 5.68182401e-01 7.58483333e-01
-6.08941158e-03 8.48251588e-01 -5.29558393e-01
-9.37991986e-01 2.64356443e-01 -2.24246907e-01
-1.00380477e-01 9.52792154e-01 2.86550011e-01
-3.96993086e-01 7.63997051e-01 5.08630576e-01
-5.16382800e-01 1.00218646e-01 -8.50473347e-01
7.22454990e-01 4.14559679e-01 5.53352630e-01
8.43692627e-01 -4.73357975e-01 -2.53209293e-01
1.20000906e-01 -1.78139792e-01 -9.76660569e-01
6.13245970e-01 -7.87652467e-01 -5.94387454e-02
-3.19173767e-01 -5.68182401e-01 7.58483333e-01
4.43544705e-01 1.07076255e-01 -8.89832935e-01
5.08468137e-01 7.75328344e-01 3.74601338e-01
-5.96979959e-01 6.49845896e-01 -4.70441472e-01
6.52382368e-02 8.77744368e-01 4.74667104e-01
-9.65799262e-01 -1.65615537e-01 -1.99507528e-01
9.37991986e-01 -2.64356443e-01 -2.24246908e-01
-9.25651005e-01 3.26710857e-01 1.90867121e-01
-5.32611498e-01 8.01645524e-01 -2.71457934e-01
9.31562931e-01 3.06827398e-01 1.95057631e-01
9.25651005e-01 -3.26710857e-01 1.90867121e-01
-8.43692627e-01 4.73357975e-01 -2.53209293e-01
-1.68012701e-01 3.95336035e-01 -9.03039884e-01
3.38494304e-02 5.27559411e-01 -8.48843432e-01
-5.29002051e-01 -5.23218070e-01 6.68131552e-01
3.39642926e-01 -4.49038310e-02 9.39482013e-01
-4.31180528e-01 2.64007300e-01 8.62776687e-01
-5.18792675e-02 4.11889786e-01 9.09755718e-01
1.94216151e-01 -5.84111159e-01 -7.88095258e-01
-8.41603576e-01 7.32449923e-02 -5.35106084e-01
8.72992593e-02 7.34691784e-02 -9.93469168e-01
2.90023291e-01 8.50433838e-01 4.38917801e-01
-8.95141222e-01 -1.52444960e-01 -4.18906520e-01
-2.03581386e-01 -7.86140456e-01 -5.83556103e-01
2.17541708e-01 7.41368105e-01 6.34861419e-01
4.94733859e-01 -8.56857853e-01 1.45027748e-01
-9.89367776e-01 -1.38406149e-01 4.46670821e-02
6.41646127e-01 3.39949790e-01 -6.87549487e-01
-5.24173418e-01 4.34906334e-01 7.32187685e-01
5.18792676e-02 -4.11889786e-01 9.09755718e-01
9.37598110e-01 3.44231928e-01 -4.91340831e-02
7.55546477e-01 5.34108147e-01 -3.79312481e-01
9.65799262e-01 1.65615537e-01 -1.99507528e-01
-2.15380505e-01 8.65610985e-01 -4.52027433e-01
