4.03137996e-01 4.92542825e-01 7.71285149e-01
-1.52957909e-01 6.93961690e-01 7.03576973e-01
5.86278764e-01 3.78487506e-01 7.16256879e-01
5.78802612e-01 4.21295137e-01 -6.98210880e-01
2.48408658e-01 -3.69390377e-01 8.95457012e-01
-2.28004486e-01 -7.03551794e-02 -9.71115227e-01
9.92863180e-01 -2.78378155e-02 1.15964134e-01
1.28800075e-01 -8.37713073e-01 -5.30704927e-01
6.24559153e-01 -5.91865439e-01 5.09529988e-01
-3.67886010e-01 6.21167773e-01 6.91960979e-01
-6.52152464e-01 7.51877284e-01 9.68382477e-02
-9.24481661e-01 -1.01433374e-01 -3.67484949e-01
6.61080765e-01 5.30400674e-01 -5.30704927e-01
-6.85735390e-01 6.73498870e-01 -2.75982683e-01
-9.45342888e-01 3.13122087e-01 -9.10024549e-02
-7.53244632e-01 3.86915417e-01 5.31900942e-01
3.32310529e-01 -3.49288796e-01 -8.76109390e-01
-5.49926076e-01 -7.64613432e-01 3.36076443e-01
-1.72598622e-01 -6.32037151e-01 -7.55472888e-01
7.21890076e-01 8.01474354e-03 6.91960979e-01
9.88023118e-01 -1.17747559e-01 -9.97291332e-02
-4.31116582e-01 4.17960588e-01 7.99654224e-01
-5.39023707e-01 -5.26067798e-01 -6.57804360e-01
4.37918670e-01 -6.33975888e-01 6.37417732e-01
-1.21195858e-02 5.54948405e-01 8.31796129e-01
4.66820823e-01 2.91674313e-01 -8.34868253e-01
4.12821942e-01 9.04622276e-01 1.06002395e-01
-1.38958421e-01 -9.67454841e-01 2.11474676e-01
-4.68648235e-01 -1.13144962e-01 -8.76109390e-01
4.86659209e-01 -2.66978333e-01 8.31796129e-01
8.64883656e-01 -1.07065220e-01 -4.90421904e-01
-4.80197643e-01 8.20173881e-01 -3.11006828e-01
2.97970442e-01 7.69746640e-01 -5.64538857e-01
-6.73840203e-01 -3.03383182e-01 6.73719195e-01
-1.79473427e-01 9.80142251e-01 -8.43238809e-02
1.36095379e-01 -2.80299312e-02 9.90298781e-01
-1.26601583e-01 -3.53734368e-01 9.26738036e-01
2.45711122e-01 -8.81407442e-01 4.03418743e-01
2.00290929e-01 8.36816813e-01 5.09529988e-01
-5.24509498e-01 -4.79446281e-01 7.03576973e-01
-8.15605366e-01 -1.26823348e-01 -5.64538857e-01
-1.20222698e-01 -7.90112694e-01 -6.01056450e-01
6.33659540e-01 1.66543784e-01 -7.55472888e-01
-5.39613924e-11 1.71521349e-11 -1.00000035e+00
-3.25068597e-01 -9.40719243e-01 9.68382477e-02
-6.88943300e-01 5.81030378e-01 4.33313427e-01
-9.89836843e-01 -9.47968487e-02 1.06002395e-01
3.70613276e-01 -8.96986278e-01 -2.40959716e-01
4.43480228e-01 -7.69285072e-01 4.59918953e-01
4.20090245e-01 -8.71967282e-01 2.51390273e-01
-5.68455200e-02 8.45436150e-01 5.31042307e-01
8.47658718e-01 3.06127210e-01 4.33313427e-01
1.73572956e-01 9.71569221e-01 1.61014174e-01
-5.25163028e-01 -6.95478608e-01 -4.90421904e-01
-9.17952914e-01 -3.01425954e-01 -2.57885676e-01
-2.57447748e-02 3.51602182e-01 9.35795093e-01
3.00743688e-02 -9.97835204e-01 5.84841525e-02
-3.04807780e-01 -8.27628612e-01 -4.71299722e-01
-6.20919177e-01 3.18488550e-01 7.16256879e-01
-8.26203122e-01 -3.30223118e-01 -4.56444316e-01
-3.87211618e-01 8.58556668e-01 3.36076443e-01
4.65356921e-02 7.71625863e-01 -6.34372447e-01
-8.79187820e-01 4.72872435e-01 5.84841525e-02
5.94929350e-01 8.03757721e-01 5.70879268e-03
7.40409958e-01 2.34531979e-01 6.29910632e-01
2.65449124e-01 2.77924069e-01 -9.23198582e-01
9.40698607e-01 1.32925075e-01 3.12116704e-01
8.46939817e-01 -4.48505407e-01 -2.85545174e-01
-6.24146315e-01 4.99172258e-01 -6.01056449e-01
8.43995976e-01 -5.32240320e-01 -6.62652317e-02
-2.56456443e-01 5.93251844e-02 9.64733092e-01
8.56221221e-01 7.03358367e-02 5.11798526e-01
2.26869134e-01 5.65386606e-02 -9.72283116e-01
4.09094963e-01 -4.68683538e-01 7.82928160e-01
-4.70192595e-01 -8.25950298e-01 -3.11006828e-01
-2.47034098e-01 5.53050553e-01 -7.95681971e-01
-7.67998559e-01 -6.22607487e-02 6.37417732e-01
2.28877812e-01 -9.60051644e-01 1.60983460e-01
2.42623397e-01 -5.48871022e-01 -7.99921902e-01
7.54509854e-02 -7.11905335e-01 -6.98210880e-01
-3.67197989e-01 -7.76677247e-01 5.11798526e-01
-5.49609770e-01 -6.41453468e-01 5.35225349e-01
1.07964743e-01 -3.68847719e-01 -9.23198582e-01
-3.92039182e-01 9.14526899e-01 -9.97291331e-02
-4.86007776e-01 2.58441536e-01 -8.34868253e-01
3.08620714e-01 -6.99467171e-01 -6.44592417e-01
9.36846082e-01 3.45511359e-01 -5.42342761e-02
3.74396952e-01 8.51341290e-01 -3.67484949e-01
-5.73315631e-01 5.23947843e-01 6.29910632e-01
-1.67094327e-01 -7.58479822e-01 6.29910632e-01
-2.71485420e-01 9.53727840e-01 1.29223773e-01
5.30728702e-02 2.32635266e-01 -9.71115227e-01
5.29857873e-01 7.13941839e-01 -4.57753214e-01
-4.72323335e-01 8.73763644e-01 1.15964134e-01
7.44369014e-01 2.90940436e-01 -6.01056450e-01
5.45100695e-01 7.99792465e-01 2.51390273e-01
7.60591943e-01 -3.73488410e-01 5.31042307e-01
-8.11886985e-01 -5.09218694e-01 -2.85545174e-01
-6.10439332e-01 -1.19944862e-01 7.82928160e-01
-6.64401585e-01 -1.41409203e-01 -7.33876342e-01
-7.59091375e-01 -6.45499672e-01 -8.43238808e-02
-7.68361259e-01 6.04068943e-01 2.11474676e-01
-3.73413866e-01 9.09236499e-02 -9.23198582e-01
7.68511051e-02 -2.51760387e-01 9.64733092e-01
3.53362833e-01 -8.15841298e-01 -4.57753214e-01
5.42349791e-01 -5.40862554e-02 8.38409681e-01
-1.69201427e-01 -9.84088186e-01 -5.42342761e-02
6.02472877e-01 -6.25874722e-02 -7.95681971e-01
5.31615345e-02 -9.47873780e-01 3.14179769e-01
-5.85465795e-01 7.48206353e-01 3.12116704e-01
-4.61060918e-01 4.65493367e-01 -7.55472888e-01
8.69151293e-01 1.49843025e-01 -4.71299722e-01
3.54024550e-01 4.84553536e-01 -7.99921902e-01
-8.83220706e-01 1.01899459e-01 -4.57753214e-01
7.54617149e-01 -6.36103200e-01 1.61014174e-01
1.74931615e-01 -1.62280087e-01 -9.71115227e-01
7.11700896e-01 4.58871278e-01 5.31900941e-01
-6.00975798e-03 -9.79947061e-01 -1.99167716e-01
-1.51948870e-01 -4.21994550e-01 -8.93774450e-01
3.95766426e-01 -1.35861069e-01 -9.08246301e-01
8.82144481e-01 -4.47826131e-01 1.45851871e-01
-8.86176797e-01 2.27911648e-01 4.03418744e-01
-8.47463541e-01 4.27897651e-01 3.14179769e-01
-7.53184076e-01 5.09036824e-01 -4.16647995e-01
2.01499762e-01 -9.75252000e-01 -9.10024550e-02
5.35785111e-01 5.90478073e-01 6.03547461e-01
-7.03746423e-01 -4.71947739e-01 5.31042307e-01
-3.39720628e-01 8.02543827e-01 -4.90421904e-01
9.25735680e-01 -2.30441160e-01 -2.99850849e-01
-5.95983936e-01 -7.96779341e-01 -9.97291331e-02
-5.96647947e-01 6.43174859e-02 -7.99921902e-01
1.79605339e-01 1.92435203e-01 9.64733092e-01
5.91506266e-01 7.69453651e-01 -2.40959716e-01
8.08006108e-01 -3.36765955e-01 -4.83440958e-01
-6.95650926e-01 -5.31370838e-01 -4.83440958e-01
5.77014901e-01 -8.09825427e-01 1.06002395e-01
9.87708798e-01 1.08260261e-01 -1.12743627e-01
-9.28190105e-01 -3.35466021e-01 1.61014174e-01
5.77522778e-01 1.64377618e-01 7.99654225e-01
6.77467408e-01 -2.14515410e-01 7.03576973e-01
5.99657644e-01 -4.31871143e-01 6.73719195e-01
-2.43042157e-01 2.86507371e-01 9.26738036e-01
-3.56199011e-01 -6.80851217e-01 -6.39972135e-01
-7.79261567e-01 1.68764480e-01 6.03547461e-01
4.54664755e-01 -5.04684050e-01 -7.33876342e-01
-1.46406196e-01 -5.82338206e-01 7.99654225e-01
-6.62435739e-01 -6.86490037e-01 -2.99850849e-01
6.44979754e-01 -4.26114023e-01 -6.34372447e-01
3.98589848e-01 2.86066738e-01 8.71373252e-01
3.30079890e-01 6.96236637e-01 6.37417732e-01
-3.54004067e-01 -6.29182517e-01 6.91960979e-01
5.17634924e-01 -6.42923292e-01 -5.64538857e-01
-4.74539623e-01 -2.87970072e-01 8.31796129e-01
-9.31885565e-01 -1.71609523e-01 3.19592305e-01
3.46404132e-02 -6.96976056e-01 7.16256879e-01
2.56857115e-01 9.65428145e-01 -4.44179019e-02
1.36337706e-01 4.62433758e-01 -8.76109390e-01
-1.62398483e-01 1.68205103e-01 -9.72283116e-01
9.61695248e-01 -2.41750650e-01 1.29223773e-01
-6.44706505e-02 -2.24743763e-01 -9.72283116e-01
-1.12355182e-01 8.68136793e-01 -4.83440959e-01
-9.45868019e-01 2.81811822e-01 1.60983461e-01
-6.54253598e-01 2.90610197e-01 -6.98210880e-01
-7.89880840e-01 3.07312399e-01 -5.30704927e-01
9.07319680e-01 3.63385898e-01 2.11474676e-01
-7.67644656e-01 6.38576827e-01 -5.42342761e-02
-8.02240761e-02 4.10674314e-01 -9.08246301e-01
1.27119952e-01 8.80624451e-01 -4.56444316e-01
-8.82931626e-01 -4.64801796e-01 -6.62652316e-02
-7.60066696e-01 8.24602073e-02 -6.44592417e-01
-2.24573831e-02 6.12445526e-01 -7.90194088e-01
-6.28123597e-01 1.02856333e-01 7.71285149e-01
7.75921223e-01 -5.21846738e-01 3.54431925e-01
2.09736831e-01 6.46093253e-01 -7.33876342e-01
3.17368809e-01 -1.53505462e-01 9.35795093e-01
3.69643740e-01 6.72269968e-02 9.26738036e-01
8.49113451e-01 5.24962770e-01 5.84841524e-02
2.24985601e-01 -5.95399158e-01 7.71285149e-01
4.84461379e-02 -4.88222303e-01 8.71373252e-01
-5.19164693e-01 -3.25671427e-01 -7.90194088e-01
-8.87960529e-01 5.77392182e-04 4.59918953e-01
-9.86641685e-01 -6.80285714e-02 -1.48021631e-01
6.40465675e-01 6.53495795e-01 4.03418743e-01
6.99083170e-01 -5.50401334e-01 -4.56444316e-01
4.51445982e-01 6.17006964e-01 -6.44592417e-01
7.25099931e-01 -2.03774324e-01 -6.57804360e-01
1.91869527e-02 -5.50115848e-01 -8.34868253e-01
-2.24334824e-01 4.96731824e-01 8.38409681e-01
-6.90209828e-01 -7.11977190e-01 1.29223773e-01
-4.37730572e-02 1.31877022e-01 9.90298781e-01
-8.39893143e-01 -4.11044122e-01 3.54431925e-01
5.41622076e-01 -2.86774099e-01 -7.90194088e-01
7.19954813e-01 6.09973301e-01 -3.31055691e-01
8.17430859e-01 3.97758132e-01 -4.16647995e-01
-9.93539280e-01 1.13345069e-01 5.70879278e-03
-9.65190940e-01 7.21748174e-02 2.51390273e-01
-2.91624034e-01 -1.98096720e-01 9.35795093e-01
8.30319884e-01 -1.55249289e-01 5.35225349e-01
-4.00098263e-01 -9.09511041e-01 -1.12743627e-01
4.15437362e-02 -8.45786695e-01 5.31900942e-01
-2.89483565e-01 3.42588856e-01 -8.93774450e-01
-1.71818522e-01 9.22863950e-01 3.44674169e-01
-2.63299942e-01 9.16931196e-01 -2.99850849e-01
-2.80710114e-01 7.96702757e-01 5.35225349e-01
-6.42467830e-02 -9.06794956e-01 -4.16647995e-01
6.14560989e-01 -7.21231811e-01 3.19592305e-01
-3.55438780e-01 -4.90463081e-01 -7.95681971e-01
7.16990207e-01 6.78239822e-01 1.60983460e-01
-2.40399436e-01 -9.30613703e-01 -2.75982683e-01
7.20018991e-01 -6.44257566e-01 -2.57885676e-01
-9.23223221e-02 -1.03847090e-01 9.90298781e-01
5.52235313e-01 -8.20442478e-01 -1.48021631e-01
9.50390238e-01 5.77641714e-03 -3.11006829e-01
9.38564802e-01 -3.34642579e-01 -8.43238809e-02
3.98609931e-01 -9.17102791e-01 5.70879273e-03
-7.13314364e-01 -6.10231180e-01 3.44674169e-01
-3.18014967e-01 -4.42645569e-01 8.38409681e-01
4.41432435e-01 7.94056936e-02 -8.93774450e-01
7.41825584e-02 7.35254325e-01 6.73719195e-01
9.77221060e-01 1.88841959e-01 9.68382476e-02
-6.91515446e-01 -3.45511840e-01 -6.34372447e-01
-5.32434346e-02 9.87872596e-01 1.45851871e-01
1.95697121e-01 3.99823396e-01 8.95457012e-01
-8.28901047e-01 -5.40046465e-01 1.45851871e-01
9.26134825e-01 2.57114833e-01 -2.75982683e-01
7.43843126e-01 6.62129912e-01 -9.10024550e-02
-4.89023232e-01 7.06341411e-01 5.11798526e-01
8.51663929e-01 4.84768928e-01 -1.99167716e-01
7.07656742e-01 -7.05158859e-01 -4.44179019e-02
-5.20539845e-01 -8.45925829e-01 1.15964134e-01
-5.64343513e-01 6.77785587e-01 -4.71299722e-01
-1.86076224e-01 7.29842123e-01 -6.57804360e-01
-1.58715418e-01 -8.87157588e-01 4.33313427e-01
-9.62119542e-01 1.27532627e-01 -2.40959716e-01
4.34406371e-01 8.88471049e-01 -1.48021631e-01
-3.50528328e-02 9.57724101e-01 -2.85545174e-01
1.68274968e-01 -9.28485809e-01 -3.31055691e-01
9.37137694e-01 -9.39432357e-02 3.36076443e-01
7.94302006e-01 5.19976130e-01 3.14179769e-01
2.01344369e-01 5.88628400e-01 7.82928160e-01
-5.87610535e-01 8.01250780e-01 -1.12743627e-01
-8.24850083e-01 -2.44951373e-01 5.09529988e-01
-9.64513857e-01 -2.60269286e-01 -4.44179017e-02
-4.44105779e-01 -3.04330197e-02 8.95457012e-01
3.89356499e-02 9.97042116e-01 -6.62652316e-02
5.50084709e-01 -7.49907916e-01 -3.67484949e-01
8.85132886e-01 -3.12632770e-01 3.44674169e-01
-4.11534945e-01 6.48903001e-01 -6.39972135e-01
2.43476456e-01 -7.59242553e-01 6.03547461e-01
7.67733956e-01 3.19482164e-02 -6.39972135e-01
1.97933923e-01 9.45683521e-01 -2.57885676e-01
-8.88229781e-01 3.18512507e-01 -3.31055691e-01
4.44480301e-01 7.68707679e-01 4.59918953e-01
-3.55232811e-01 -8.81131428e-01 3.12116704e-01
3.17324576e-01 8.92841334e-01 3.19592305e-01
-4.47035986e-01 2.02155565e-01 8.71373252e-01
-8.45654171e-01 4.95178134e-01 -1.99167716e-01
6.39719200e-02 9.32890859e-01 3.54431925e-01
-3.15542350e-01 -2.74813245e-01 -9.08246301e-01
