3.65361187e-02 -9.98913977e-01 2.89119301e-02
-6.90123550e-01 3.22010412e-01 -6.48105351e-01
-9.46770121e-01 -1.38410343e-01 2.90634001e-01
6.94343921e-01 4.47762253e-01 -5.63379995e-01
9.13791452e-01 -3.98961092e-01 -7.62590115e-02
3.53995460e-02 -2.22888459e-01 9.74199647e-01
4.93852045e-01 -8.66851886e-01 -6.83970157e-02
9.09942942e-01 -2.98893347e-01 2.87516652e-01
-1.98210271e-01 -7.23981122e-01 6.60728555e-01
1.98210271e-01 7.23981122e-01 6.60728555e-01
-5.98922325e-01 2.29178506e-02 8.00477757e-01
3.19683402e-02 9.69311457e-01 2.43747125e-01
-6.64889537e-01 -6.52969518e-01 3.62700600e-01
1.29282667e-01 9.79282324e-01 -1.55860663e-01
-2.45554932e-01 7.83310838e-01 5.71073857e-01
-6.12350768e-01 2.61264862e-01 7.46166989e-01
-4.38104423e-01 1.66035236e-01 8.83455945e-01
2.44523237e-02 -5.02144900e-01 -8.64439089e-01
-1.05854702e-02 7.89373060e-01 6.13821186e-01
6.32100592e-01 7.57912398e-01 1.61298474e-01
-2.00349269e-01 9.56888460e-01 2.10295204e-01
-7.21695486e-01 3.74083490e-01 5.82422167e-01
-3.52539573e-01 -9.29246248e-01 -1.10533073e-01
-5.96244136e-01 -1.54573789e-02 -8.02655709e-01
-3.21892162e-01 -3.38052955e-01 -8.84368727e-01
6.90123550e-01 -3.22010412e-01 -6.48105351e-01
-3.67107812e-02 -1.09509021e-01 -9.93309015e-01
9.80938195e-02 -9.77356778e-01 -1.87488246e-01
5.93771079e-01 6.88774111e-01 -4.15965460e-01
5.30400799e-01 5.94298452e-01 -6.04554373e-01
-9.13791452e-01 3.98961092e-01 -7.62590119e-02
5.63704427e-01 -5.13877461e-01 6.46657182e-01
6.35433944e-01 -7.68192436e-01 7.81272710e-02
-6.32100593e-01 -7.57912398e-01 1.61298474e-01
9.73338816e-01 2.16267657e-01 7.64175459e-02
-6.95609880e-01 -3.32711755e-01 6.36732321e-01
9.68092849e-01 -2.36746367e-01 8.21411571e-02
-2.68293150e-01 9.63335924e-01 -1.63932856e-03
-7.99089267e-01 -5.62061005e-01 2.13408503e-01
9.77874361e-01 -1.66368656e-01 -1.26820940e-01
-5.65819292e-02 4.45363290e-01 8.93558946e-01
-8.11642073e-02 -6.85366210e-01 -7.23662561e-01
-3.66587209e-01 -2.89481213e-01 8.84201355e-01
-4.82905782e-01 -1.94159373e-01 -8.53877315e-01
2.68293150e-01 -9.63335924e-01 -1.63932889e-03
7.99089267e-01 5.62061005e-01 2.13408504e-01
-4.99492034e-01 -7.10074947e-01 4.96286132e-01
5.69285465e-01 2.05502060e-01 7.96040699e-01
-8.49204017e-01 2.16650327e-01 4.81574356e-01
5.99970041e-01 3.35879723e-01 -7.26101054e-01
8.43923089e-01 2.44013250e-01 4.77755222e-01
3.12845155e-01 6.66088930e-01 -6.77093266e-01
8.11642077e-02 6.85366210e-01 -7.23662561e-01
7.75073105e-01 4.58050507e-01 4.35258807e-01
3.66587209e-01 2.89481212e-01 8.84201355e-01
5.62252294e-01 -7.70451136e-01 3.00460622e-01
6.95609879e-01 3.32711755e-01 6.36732321e-01
-1.22219763e-01 8.99593681e-01 4.19276039e-01
-3.99508072e-01 -7.74601194e-01 -4.90293408e-01
-8.43923089e-01 -2.44013251e-01 4.77755222e-01
-2.51522744e-01 2.93045213e-01 9.22419806e-01
-9.68092849e-01 2.36746367e-01 8.21411566e-02
8.68849110e-01 3.63938782e-01 -3.35634774e-01
-9.89238289e-01 -6.44637499e-02 -1.31348358e-01
2.58815775e-01 -4.98672688e-01 8.27247056e-01
-5.63704428e-01 5.13877461e-01 6.46657182e-01
7.59419584e-01 6.50532698e-01 9.43818608e-03
1.31549237e-01 -6.58278868e-01 7.41189389e-01
3.22894992e-01 -9.22614564e-01 -2.11001813e-01
9.46805124e-01 2.92156654e-01 -1.34925590e-01
6.73599204e-01 -6.31366567e-01 -3.84241353e-01
9.30350869e-01 1.45503124e-01 -3.36566513e-01
-4.92647439e-01 -8.28741207e-01 -2.65494323e-01
-2.01626091e-01 -5.23693192e-01 -8.27704425e-01
3.86320679e-01 -6.01281270e-01 -6.99441973e-01
-8.96106032e-01 -3.55741604e-01 2.65407549e-01
-4.67029747e-01 7.23354181e-01 5.08567162e-01
-3.19683403e-02 -9.69311457e-01 2.43747125e-01
-1.89311452e-01 8.75472992e-02 -9.78007827e-01
-2.61360366e-01 4.67968678e-01 -8.44214650e-01
-9.01369690e-01 3.18520543e-01 -2.93390772e-01
-4.00669140e-02 8.14208701e-01 -5.79189444e-01
-9.46805124e-01 -2.92156654e-01 -1.34925591e-01
-6.53276824e-02 -9.25034969e-01 -3.74224023e-01
8.13626642e-01 -5.32195307e-01 -2.34052304e-01
-3.24793510e-10 -1.97933200e-10 9.99998638e-01
1.90919153e-01 1.48077789e-01 9.70371167e-01
5.98922325e-01 -2.29178510e-02 8.00477757e-01
8.49204017e-01 -2.16650327e-01 4.81574357e-01
3.06989793e-01 8.16488917e-01 4.88980350e-01
6.12350767e-01 -2.61264862e-01 7.46166989e-01
2.45554931e-01 -7.83310838e-01 5.71073857e-01
5.96244136e-01 1.54573793e-02 -8.02655709e-01
3.99508073e-01 7.74601194e-01 -4.90293408e-01
-9.80938194e-02 9.77356778e-01 -1.87488246e-01
-3.65361187e-02 9.98913977e-01 2.89119306e-02
-2.60443404e-01 7.61398597e-01 -5.93669122e-01
7.37846256e-01 -9.91605812e-02 -6.67646538e-01
-8.73923712e-01 4.63787318e-01 1.45458835e-01
-8.97741554e-01 -4.38030131e-01 4.67929401e-02
7.50525290e-01 -1.15629480e-01 6.50645710e-01
8.96106032e-01 3.55741604e-01 2.65407550e-01
2.82739547e-01 8.99839930e-01 -3.32185721e-01
4.34625640e-01 4.79446087e-01 -7.62387093e-01
-2.84854243e-01 -5.07076670e-01 8.13467329e-01
-7.86635076e-02 -5.98263047e-01 7.97427869e-01
4.38104422e-01 -1.66035237e-01 8.83455946e-01
7.42248781e-01 1.13611782e-01 6.60422070e-01
-9.52705825e-01 8.21293910e-02 2.92584307e-01
-8.11450867e-01 -2.62649573e-01 -5.22076732e-01
-9.96686497e-01 9.57346811e-03 8.07722440e-02
9.01369690e-01 -3.18520543e-01 -2.93390771e-01
1.03200010e-01 8.86993486e-01 4.50101197e-01
-4.93852045e-01 8.66851886e-01 -6.83970156e-02
9.52705825e-01 -8.21293911e-02 2.92584307e-01
8.97741554e-01 4.38030130e-01 4.67929408e-02
7.96710001e-01 -6.04352664e-01 -3.32282457e-03
-4.34625640e-01 -4.79446087e-01 -7.62387094e-01
-7.97941761e-01 4.62002094e-01 3.87094247e-01
-3.22894992e-01 9.22614564e-01 -2.11001813e-01
-5.62252294e-01 7.70451136e-01 3.00460622e-01
1.03200294e-01 3.23113399e-01 -9.40717808e-01
-7.51051332e-01 -5.44033763e-01 -3.74099160e-01
5.57978594e-01 -2.06567950e-01 -8.03736126e-01
-3.99948404e-01 -6.24310535e-01 6.71025933e-01
9.96686497e-01 -9.57346816e-03 8.07722447e-02
-9.73338816e-01 -2.16267657e-01 7.64175452e-02
6.53276828e-02 9.25034969e-01 -3.74224023e-01
-5.34216844e-01 7.95104917e-01 -2.87091130e-01
-4.87034004e-01 4.14149928e-01 -7.68947209e-01
2.61360366e-01 -4.67968678e-01 -8.44214650e-01
9.39571807e-01 -8.38609731e-02 -3.31923277e-01
8.42547971e-01 5.15023958e-01 -1.57682174e-01
-5.30400799e-01 -5.94298451e-01 -6.04554374e-01
-8.42547971e-01 -5.15023958e-01 -1.57682175e-01
3.49242145e-01 -8.62504859e-01 3.66216186e-01
4.67029747e-01 -7.23354181e-01 5.08567162e-01
-7.76807434e-01 4.36541005e-01 -4.53875972e-01
5.65819286e-02 -4.45363290e-01 8.93558946e-01
-5.03041212e-01 -4.24488272e-01 7.52832780e-01
-8.53038438e-01 -2.83390155e-02 -5.21079402e-01
-5.57978594e-01 2.06567951e-01 -8.03736126e-01
-4.20887590e-01 -9.01324922e-01 1.02307102e-01
-2.27272637e-01 7.36612099e-02 9.71039921e-01
-1.23942551e-01 3.02375933e-01 -9.45097674e-01
-5.99970041e-01 -3.35879723e-01 -7.26101054e-01
1.46242867e-01 -6.49160092e-01 -7.46462479e-01
3.99948403e-01 6.24310534e-01 6.71025933e-01
-2.61725748e-01 -9.24099116e-01 2.78459508e-01
-2.82739547e-01 -8.99839930e-01 -3.32185722e-01
6.49773450e-01 -6.06788363e-01 4.57822126e-01
4.20887590e-01 9.01324922e-01 1.02307102e-01
-7.59419584e-01 -6.50532698e-01 9.43818539e-03
1.51622068e-01 -9.04163375e-01 -3.99375047e-01
-7.75073105e-01 -4.58050507e-01 4.35258807e-01
3.60205418e-01 -8.36439873e-01 -4.13063579e-01
4.87034005e-01 -4.14149928e-01 -7.68947209e-01
2.84854242e-01 5.07076670e-01 8.13467329e-01
5.03041211e-01 4.24488272e-01 7.52832780e-01
-4.08876982e-01 -6.48766976e-02 9.10279159e-01
-9.77874361e-01 1.66368656e-01 -1.26820940e-01
6.14131581e-01 5.34458219e-01 5.80685139e-01
-4.30572029e-01 8.89876663e-01 1.50754242e-01
-5.93771078e-01 -6.88774111e-01 -4.15965461e-01
-7.16250615e-01 -1.51100249e-01 -6.81289680e-01
8.41456574e-01 -2.15752132e-01 -4.95381874e-01
-3.53995466e-02 2.22888458e-01 9.74199647e-01
4.49137278e-01 -3.92662221e-01 8.02552116e-01
4.99492034e-01 7.10074947e-01 4.96286133e-01
8.72164465e-01 1.75485330e-02 4.88896576e-01
6.81539602e-01 -7.16186483e-01 -1.50270096e-01
1.23942552e-01 -3.02375933e-01 -9.45097674e-01
-7.38412631e-01 6.32416993e-01 2.34083095e-01
6.07847587e-01 -5.22126135e-01 -5.98253492e-01
8.73923712e-01 -4.63787318e-01 1.45458835e-01
-9.39571806e-01 8.38609733e-02 -3.31923277e-01
-1.83854066e-01 -8.17402492e-01 -5.45941696e-01
-3.49242145e-01 8.62504859e-01 3.66216186e-01
4.82905783e-01 1.94159374e-01 -8.53877315e-01
-2.58815775e-01 4.98672687e-01 8.27247056e-01
-8.72164465e-01 -1.75485332e-02 4.88896576e-01
9.46770121e-01 1.38410343e-01 2.90634001e-01
3.52539573e-01 9.29246248e-01 -1.10533072e-01
7.38412631e-01 -6.32416993e-01 2.34083095e-01
3.21892162e-01 3.38052955e-01 -8.84368727e-01
6.88464511e-01 6.96726409e-01 -2.01468304e-01
-1.46242867e-01 6.49160092e-01 -7.46462479e-01
-3.73043778e-01 6.24797703e-01 6.85904002e-01
-3.49315656e-01 2.62169247e-01 -8.99582297e-01
-3.06989794e-01 -8.16488917e-01 4.88980349e-01
-4.73232120e-01 -8.25877092e-01 3.06557586e-01
2.51522743e-01 -2.93045213e-01 9.22419806e-01
5.34216845e-01 -7.95104916e-01 -2.87091130e-01
2.60443405e-01 -7.61398597e-01 -5.93669123e-01
-7.50525290e-01 1.15629479e-01 6.50645709e-01
-6.49773450e-01 6.06788363e-01 4.57822126e-01
-6.35433944e-01 7.68192436e-01 7.81272710e-02
2.00349269e-01 -9.56888460e-01 2.10295204e-01
8.53038438e-01 2.83390157e-02 -5.21079402e-01
-1.03200293e-01 -3.23113398e-01 -9.40717808e-01
-3.12845155e-01 -6.66088930e-01 -6.77093267e-01
1.22219763e-01 -8.99593681e-01 4.19276039e-01
7.76807434e-01 -4.36541005e-01 -4.53875972e-01
-1.03200010e-01 -8.86993486e-01 4.50101197e-01
4.07122188e-01 -4.04584880e-02 -9.12478559e-01
6.64889536e-01 6.52969518e-01 3.62700600e-01
7.51051332e-01 5.44033763e-01 -3.74099159e-01
-7.37846256e-01 9.91605815e-02 -6.67646539e-01
1.89311453e-01 -8.75472987e-02 -9.78007827e-01
-2.62995371e-01 -1.31541912e-01 -9.55789079e-01
-6.81539602e-01 7.16186484e-01 -1.50270096e-01
-8.41456574e-01 2.15752132e-01 -4.95381874e-01
4.92647439e-01 8.28741208e-01 -2.65494322e-01
1.05854698e-02 -7.89373060e-01 6.13821185e-01
1.83854067e-01 8.17402492e-01 -5.45941696e-01
-2.44523232e-02 5.02144900e-01 -8.64439089e-01
-7.96710001e-01 6.04352664e-01 -3.32282468e-03
-6.94343921e-01 -4.47762253e-01 -5.63379996e-01
-8.13626641e-01 5.32195307e-01 -2.34052304e-01
7.16250615e-01 1.51100249e-01 -6.81289679e-01
4.08876981e-01 6.48766972e-02 9.10279159e-01
-6.14131582e-01 -5.34458220e-01 5.80685138e-01
-3.86320678e-01 6.01281270e-01 -6.99441973e-01
3.49315656e-01 -2.62169247e-01 -8.99582297e-01
-6.88464511e-01 -6.96726409e-01 -2.01468305e-01
1.95091252e-01 9.78641988e-01 6.48003495e-02
-1.29282667e-01 -9.79282324e-01 -1.55860663e-01
-4.49137279e-01 3.92662221e-01 8.02552116e-01
7.97941761e-01 -4.62002094e-01 3.87094247e-01
-9.30350869e-01 -1.45503124e-01 -3.36566514e-01
-5.71181149e-01 -8.19406239e-01 -4.82249039e-02
7.86635071e-02 5.98263046e-01 7.97427870e-01
-9.09942943e-01 2.98893347e-01 2.87516651e-01
-6.07847586e-01 5.22126135e-01 -5.98253492e-01
2.01626092e-01 5.23693192e-01 -8.27704425e-01
-7.42248781e-01 -1.13611782e-01 6.60422069e-01
-1.31549237e-01 6.58278868e-01 7.41189389e-01
3.73043778e-01 -6.24797704e-01 6.85904002e-01
4.97099393e-01 -6.95406025e-01 -5.18945149e-01
2.27272637e-01 -7.36612103e-02 9.71039921e-01
1.48251132e-01 3.66932208e-01 9.18357150e-01
-6.73599203e-01 6.31366567e-01 -3.84241354e-01
-1.51622067e-01 9.04163375e-01 -3.99375046e-01
-8.68849110e-01 -3.63938781e-01 -3.35634774e-01
9.89238289e-01 6.44637499e-02 -1.31348357e-01
-5.69285465e-01 -2.05502060e-01 7.96040698e-01
2.62995372e-01 1.31541913e-01 -9.55789079e-01
3.67107818e-02 1.09509021e-01 -9.93309015e-01
4.30572029e-01 -8.89876663e-01 1.50754242e-01
-1.95091251e-01 -9.78641989e-01 6.48003490e-02
5.71181149e-01 8.19406239e-01 -4.82249033e-02
8.11450867e-01 2.62649574e-01 -5.22076732e-01
2.61725748e-01 9.24099116e-01 2.78459508e-01
4.73232120e-01 8.25877092e-01 3.06557587e-01
-1.48251133e-01 -3.66932208e-01 9.18357149e-01
7.21695486e-01 -3.74083490e-01 5.82422167e-01
-4.97099392e-01 6.95406025e-01 -5.18945149e-01
-1.90919154e-01 -1.48077789e-01 9.70371166e-01
-3.60205418e-01 8.36439874e-01 -4.13063579e-01
-4.07122188e-01 4.04584884e-02 -9.12478559e-01
4.00669145e-02 -8.14208701e-01 -5.79189444e-01
