-1.67420023e-01 -4.27967158e-01 8.88152014e-01
-7.60491014e-01 5.47500331e-01 3.49136616e-01
-6.29679373e-01 -7.64637210e-01 -1.37231794e-01
-2.77871167e-01 -8.85338510e-01 3.72776451e-01
4.86097241e-01 -7.55408223e-01 -4.39394893e-01
5.85889002e-01 6.40302764e-02 8.07858131e-01
-3.96843916e-01 -7.88382378e-01 -4.70071432e-01
-5.93812151e-01 6.45581028e-01 4.80220859e-01
3.76483124e-01 4.58882736e-01 -8.04790642e-01
-3.98564846e-01 7.09467817e-01 5.81206962e-01
-9.46918286e-01 -1.00050117e-01 3.05507117e-01
8.84998760e-02 -9.93293194e-01 -7.44024095e-02
3.68407524e-01 -5.32891717e-01 -7.61775818e-01
-5.34286067e-01 1.56960548e-01 8.30602924e-01
1.34841844e-01 9.74977454e-01 1.76741430e-01
-2.36855978e-01 -5.38966347e-01 -8.08340250e-01
5.97472825e-01 -3.94504206e-01 6.98135286e-01
1.80716115e-02 -5.69327984e-01 8.21911498e-01
1.28725989e-01 -9.26829559e-01 3.52726435e-01
4.33446979e-01 -3.26522492e-01 8.39944557e-01
2.68678758e-01 -1.31449910e-01 -9.54218512e-01
-8.62830509e-01 1.58840898e-01 -4.79887858e-01
7.40952297e-01 -4.32908760e-01 5.13400499e-01
-1.84035545e-01 -2.15659991e-01 9.58968810e-01
-3.22902167e-01 -6.82778648e-01 -6.55398136e-01
-7.21500585e-01 4.39045964e-01 5.35420439e-01
-8.02154483e-02 -9.73697079e-01 -2.13257244e-01
3.30359407e-01 -9.28628622e-01 1.68852406e-01
-7.75861520e-01 -6.30732776e-01 -1.46198612e-02
-8.71375217e-01 3.47001773e-01 3.46834679e-01
1.76066686e-01 -4.47745016e-01 -8.76655510e-01
-8.69731470e-01 -4.73813652e-01 -1.38081527e-01
7.09691800e-01 -4.35509614e-01 -5.53777410e-01
-2.34270063e-01 5.03829885e-01 -8.31428443e-01
-4.55032878e-01 -7.63118309e-01 4.58905619e-01
-9.75290767e-01 -1.99449767e-01 9.50078667e-02
-1.68097022e-01 -8.29297008e-01 -5.32925045e-01
3.08786914e-02 -1.53129496e-01 9.87723459e-01
-7.47332938e-01 -6.09447950e-01 -2.64698757e-01
4.34359697e-01 -9.43901000e-02 8.95780342e-01
8.98696510e-01 -4.18220329e-01 -1.32049185e-01
5.17710354e-01 7.09461250e-01 -4.78165150e-01
3.10986482e-01 7.88694759e-01 -5.30329164e-01
-5.77306057e-01 -2.73929857e-01 7.69206866e-01
5.39191747e-01 -5.90346620e-01 -6.00635766e-01
-1.10781474e-01 -9.93252501e-01 3.42931680e-02
-3.13944644e-01 8.19509439e-01 -4.79419885e-01
-7.18814441e-01 -3.66266340e-01 5.90892226e-01
-3.29437222e-01 1.92662133e-01 9.24311682e-01
-7.35697231e-01 4.33424808e-02 -6.75921860e-01
7.04189723e-01 -2.38640047e-01 -6.68706530e-01
1.67991600e-02 2.04096780e-01 -9.78806731e-01
-2.73086843e-01 9.31445819e-01 2.40484249e-01
1.78973730e-01 5.44441784e-01 8.19482795e-01
4.37806945e-01 4.96705966e-01 7.49405775e-01
-8.01226349e-01 -2.87841579e-01 -5.24578455e-01
4.76456586e-02 6.97128097e-01 7.15362012e-01
-5.78577622e-02 9.45167694e-01 3.21420521e-01
7.55386078e-01 -2.35724820e-01 6.11413291e-01
9.46205654e-01 3.15545727e-02 3.22025090e-01
9.02150204e-02 -8.02575005e-01 -5.89689882e-01
8.26178581e-01 5.62862522e-01 2.48205531e-02
8.10655070e-01 -2.90395202e-02 -5.84804234e-01
-4.04011349e-01 -6.45901068e-01 6.47754275e-01
-8.56471130e-01 -3.88712719e-01 -3.39644596e-01
4.68098990e-02 -3.19510972e-02 -9.98392774e-01
4.49207291e-01 8.39255931e-01 -3.06371479e-01
8.29440785e-01 4.89739974e-01 2.68670760e-01
1.78494846e-01 -9.45852816e-01 -2.71111637e-01
-3.82088065e-01 1.13704014e-01 -9.17104097e-01
3.89561184e-01 1.44961941e-01 9.09521038e-01
-5.86509908e-01 -5.96897224e-02 8.07739111e-01
1.28355602e-01 7.31624648e-01 -6.69515519e-01
5.62133810e-01 -5.90933517e-01 5.78621815e-01
9.84242937e-01 -2.10391651e-02 -1.75568377e-01
7.00423950e-01 -6.88575477e-01 1.87803825e-01
6.99735500e-01 5.74292238e-01 -4.24923431e-01
-5.75099179e-02 6.36965701e-01 -7.68744341e-01
9.80565086e-01 1.84826998e-01 -6.58201902e-02
-4.38117268e-01 8.16567370e-01 3.75860499e-01
2.33234777e-01 -4.63472631e-01 8.54865144e-01
-5.56940037e-01 -5.46540662e-02 -8.28752201e-01
3.03355601e-01 -9.51372668e-01 -5.35257238e-02
-1.72803382e-01 5.77139113e-02 -9.83264004e-01
-5.48401016e-01 -4.75283852e-01 6.88012007e-01
-2.38372134e-02 4.38741836e-01 -8.98297191e-01
-5.73257178e-02 -8.76317985e-01 4.78309234e-01
-2.48547856e-01 -9.07604760e-01 -3.38343946e-01
-4.88058188e-01 6.83562282e-01 -5.42717158e-01
7.44932210e-02 8.67751363e-01 -4.91384953e-01
9.12645710e-02 -2.58116002e-01 -9.61793606e-01
-4.35276050e-01 5.42019135e-01 -7.18853315e-01
8.49625790e-01 1.37486185e-01 5.09150772e-01
2.03970829e-01 -6.60434569e-01 7.22649064e-01
5.27468693e-01 -8.30206318e-01 1.80372185e-01
8.30101840e-01 -4.91706922e-01 2.62974708e-01
5.20709836e-01 -1.91878431e-01 -8.31892097e-01
5.03014116e-01 8.59932785e-01 -8.65658006e-02
2.89047483e-01 9.46714844e-01 -1.42069131e-01
8.72537634e-01 -1.01243352e-01 4.77942092e-01
8.72185701e-01 -3.05935563e-01 3.81701673e-01
-8.61021195e-01 5.72140526e-04 5.08567774e-01
3.53955814e-01 6.39342295e-01 -6.82610942e-01
-5.71417083e-01 3.68775350e-01 -7.33135082e-01
-3.95542314e-01 -3.45390385e-02 9.17797771e-01
6.35414668e-01 7.27524939e-01 -2.58760424e-01
9.09276847e-01 3.92260465e-01 -1.39099409e-01
6.08760509e-01 -1.70767419e-01 7.74757725e-01
9.74446681e-01 -2.19233449e-01 -4.89002590e-02
6.84470959e-01 7.28261563e-01 -3.37033640e-02
3.12931430e-01 6.61532103e-01 6.81505654e-01
3.69728964e-01 8.86237567e-01 2.79077995e-01
-6.42554235e-01 -7.58794311e-01 1.06554892e-01
-3.58555987e-01 -1.11470061e-01 -9.26828837e-01
5.71236877e-01 3.62930732e-01 -7.36186608e-01
1.83869991e-01 3.50029745e-01 -9.18515984e-01
6.01545474e-01 -7.61787937e-01 -2.40462583e-01
9.73404468e-01 1.68952781e-01 1.54725082e-01
9.58099338e-01 -1.73829142e-01 2.27661898e-01
-5.88337979e-01 -7.15650811e-01 -3.76432196e-01
-2.30806691e-01 4.04740782e-01 8.84823777e-01
-7.00770974e-01 -1.77450865e-01 -6.90963417e-01
-5.34453324e-01 -6.15971562e-01 -5.78738027e-01
-1.02622434e-01 7.95279703e-01 -5.97494300e-01
3.34926640e-01 9.39618117e-01 7.03067145e-02
-1.81299559e-01 7.26985920e-01 6.62285610e-01
-8.16641610e-01 2.27226851e-01 5.30531497e-01
-1.91679220e-01 2.84161610e-01 -9.39420787e-01
4.07622483e-01 -5.40681745e-01 7.35871633e-01
-9.92907505e-01 -5.57402333e-02 -1.05007724e-01
-2.37222995e-01 -7.81227792e-01 5.77414435e-01
-9.28345320e-01 -1.70595668e-01 -3.30258999e-01
-2.40067882e-01 8.53023435e-01 4.63377582e-01
-7.60420791e-01 6.33094679e-01 1.44744662e-01
1.66328909e-01 -8.17052684e-01 5.52049865e-01
-6.14557783e-01 7.40579353e-01 2.71773517e-01
4.31620997e-01 2.46872343e-03 -9.02052003e-01
1.67294406e-01 -6.52938346e-01 -7.38704181e-01
-7.77734221e-01 -4.79380314e-01 4.06598973e-01
-4.68970772e-01 8.72081463e-01 1.39787365e-01
6.96382492e-01 5.74406244e-01 4.30244150e-01
-4.48218930e-01 3.72374506e-01 8.12672576e-01
6.30841651e-01 4.42400271e-01 6.37433717e-01
-3.88641642e-01 -2.54130221e-01 8.85649342e-01
-7.43348046e-01 -1.40832618e-01 6.53910432e-01
-3.02364665e-01 -9.42434718e-01 1.42798174e-01
-4.77680652e-01 -8.78532646e-01 6.13103381e-04
-8.81581120e-01 4.50449944e-01 1.41099158e-01
1.66808688e-01 9.08927771e-01 3.82133502e-01
3.83051136e-01 7.89111485e-01 4.80183150e-01
5.02609423e-01 -8.63579010e-01 -4.01860479e-02
1.63652896e-01 5.57849749e-01 -8.13647420e-01
9.19980791e-01 -2.41414666e-02 -3.91220596e-01
-4.53013155e-01 -8.57667008e-01 -2.43280201e-01
-3.05782543e-02 8.47492521e-01 5.29926372e-01
-4.77870210e-01 -8.43646417e-01 2.44743883e-01
3.08868870e-01 3.68752568e-01 8.76710933e-01
9.32023428e-01 -2.32833774e-01 -2.77707786e-01
-7.95453769e-01 -5.70611860e-01 2.04093297e-01
-6.36206973e-01 7.71169617e-01 2.31956335e-02
-1.42602313e-01 -1.66066254e-01 -9.75749168e-01
7.07948717e-01 2.22480528e-01 6.70307291e-01
-9.51592947e-01 5.26146315e-02 -3.02822776e-01
2.26147407e-01 1.05581342e-01 -9.68354479e-01
-8.99592237e-01 -3.37172619e-01 2.77573708e-01
-3.66253825e-01 -4.62319241e-01 8.07538345e-01
2.47971061e-02 6.48162349e-02 9.97589039e-01
3.39995178e-01 -7.13706321e-01 -6.12394033e-01
6.90690320e-01 -6.07833462e-01 3.91772334e-01
-9.59397505e-02 9.90622040e-01 9.72841571e-02
8.41000395e-01 -2.39272435e-01 -4.85250263e-01
4.10564057e-02 -3.64668153e-01 9.30231760e-01
-9.17066960e-02 -9.60632939e-01 2.62246714e-01
7.13647575e-01 6.72240652e-01 1.96979471e-01
2.44665029e-01 9.02842337e-01 -3.53575689e-01
-9.15073638e-01 2.84682390e-01 -2.85649195e-01
-1.04217022e-01 2.40066260e-01 9.65146072e-01
-9.32285655e-02 5.66222468e-01 8.18963236e-01
-6.72125147e-01 6.26172098e-01 -3.95165950e-01
-7.13746980e-01 -5.17858122e-01 -4.71579377e-01
-6.40124984e-01 -4.04393321e-01 -6.53226712e-01
6.75167081e-01 -6.13746673e-01 -4.09224545e-01
-5.03452222e-01 7.94251803e-01 -3.40147140e-01
2.46480952e-01 -2.42011335e-01 9.38444238e-01
4.01729228e-01 -8.78807762e-01 -2.57507890e-01
8.54270160e-01 1.91312614e-01 -4.83345750e-01
-6.40864011e-01 5.07473833e-01 -5.75989089e-01
1.81293997e-01 7.99512171e-01 5.72637337e-01
-6.13824217e-01 -5.96516397e-01 5.17094589e-01
7.73377483e-01 -6.01988568e-01 -1.98739553e-01
3.38225119e-01 -8.59682696e-01 3.82817260e-01
7.29278606e-01 3.91392768e-01 -5.61217951e-01
5.33854193e-02 9.64152065e-01 -2.59926248e-01
6.57680595e-01 -3.47077575e-02 -7.52497436e-01
-6.68721467e-01 7.17556728e-01 -1.94740407e-01
-4.47627157e-01 -4.89062814e-01 -7.48629905e-01
5.63055458e-01 1.55228407e-01 -8.11710254e-01
-9.04504319e-01 -4.20131813e-01 7.32112316e-02
7.27659914e-01 1.82816198e-01 -6.61128056e-01
5.56489563e-01 5.49220227e-01 -6.23440159e-01
-3.27593159e-01 5.70578855e-01 7.53075352e-01
-8.05390104e-01 5.89185337e-01 -6.48616642e-02
-9.93042495e-01 2.78808707e-02 1.14403691e-01
-5.18737225e-01 -2.75286133e-01 -8.09400137e-01
-7.32794246e-01 2.63404008e-01 -6.27399744e-01
-1.89363484e-01 7.17792693e-03 9.81880648e-01
2.36384175e-01 -1.33224931e-02 9.71568388e-01
-9.60196919e-01 2.46795375e-01 1.30816931e-01
-8.52311847e-01 -2.32367573e-01 4.68581543e-01
-8.97902190e-02 -7.10648354e-01 -6.97793720e-01
9.39520111e-01 1.93510015e-01 -2.82589868e-01
3.81831204e-01 2.50202829e-01 -8.89721424e-01
-3.07763790e-01 9.51462964e-01 -3.23272419e-04
-6.46594894e-01 3.07785909e-01 6.97984476e-01
3.55363201e-01 -3.24837474e-01 -8.76468973e-01
-9.35178046e-02 -3.76085539e-01 -9.21853472e-01
2.63735015e-01 -8.51888876e-01 -4.52469729e-01
9.26717802e-02 9.94954252e-01 -3.84561142e-02
-4.87656678e-01 8.65467599e-01 -1.14703887e-01
-3.18150024e-01 9.13261162e-01 -2.54430807e-01
5.45035959e-01 8.27537588e-01 1.34605216e-01
-8.19840503e-01 5.06864144e-01 -2.66364140e-01
-7.21932459e-01 8.95601924e-02 6.86142620e-01
9.97651066e-01 -3.00049840e-02 6.15880261e-02
9.25377001e-01 -3.61983651e-01 1.12454116e-01
-1.32728093e-01 9.81564308e-01 -1.37533341e-01
8.27766749e-01 -5.60056395e-01 3.37561798e-02
-9.19007701e-01 3.86629896e-01 -7.70811565e-02
-7.97796536e-01 3.95509765e-01 -4.55073884e-01
-2.76046719e-01 6.85799692e-01 -6.73407261e-01
-1.98456671e-01 -6.24652252e-01 7.55263990e-01
8.27719117e-01 -4.34614713e-01 -3.54953104e-01
7.91777812e-01 5.75460429e-01 -2.04779210e-01
-1.79319509e-02 -7.43238993e-01 6.68785120e-01
9.00801539e-01 2.80812198e-01 3.31213274e-01
6.80889623e-01 -7.31873488e-01 -2.73983543e-02
1.13459564e-01 -9.83319519e-01 1.42158261e-01
-9.99365375e-03 -5.56191226e-01 -8.30994053e-01
-1.30397843e-01 9.13972380e-01 -3.84254517e-01
5.28273515e-01 2.90597312e-01 7.97797577e-01
5.27335943e-01 -7.53485878e-01 3.92652191e-01
-9.54296452e-01 -2.70633753e-01 -1.26785006e-01
-5.75819801e-01 1.60110792e-01 -8.01745421e-01
3.65156832e-02 4.05653869e-01 9.13297198e-01
1.68001820e-01 2.26306530e-01 9.59458682e-01
-9.81612802e-01 1.68452628e-01 -8.97725863e-02
7.49026446e-01 -8.26975547e-03 6.62489012e-01
-2.89485811e-01 -9.51488483e-01 -1.04242904e-01
-9.34477031e-01 1.29116644e-01 3.31784006e-01
9.22106735e-01 3.75808002e-01 9.21346015e-02
6.25050415e-03 -9.10525349e-01 -4.13405206e-01
-5.37781339e-01 5.21921145e-01 6.62109729e-01
5.64246611e-01 7.47062560e-01 3.51460435e-01
3.76122309e-01 -7.24544024e-01 5.77553208e-01
5.24252092e-01 6.33935107e-01 5.68583331e-01
-3.90821964e-01 3.34370278e-01 -8.57586545e-01
-3.15525342e-01 -3.32368774e-01 -8.88804976e-01
8.43496814e-01 3.98222747e-01 -3.60462257e-01
5.50147926e-01 -3.99366402e-01 -7.33378561e-01
7.85593036e-01 3.71449783e-01 4.94843109e-01
-6.45300438e-01 -6.92305154e-01 3.22954536e-01
-8.54586084e-01 -6.52568883e-02 -5.15192464e-01
