-1.84623905e-01 -6.80559990e-01 7.09050146e-01
8.21830485e-01 3.52980022e-01 -4.47213333e-01
-2.86111287e-01 8.80763510e-01 -3.77353907e-01
6.17321311e-02 -6.72637431e-01 7.37392722e-01
-4.29620536e-01 6.81628308e-01 5.92291346e-01
5.90199090e-01 -3.85892371e-01 7.09050148e-01
6.39252851e-01 -7.29087542e-01 -2.44514117e-01
7.48220721e-01 -2.98923948e-01 5.92292349e-01
5.87970217e-01 6.22538652e-01 -5.16465543e-01
-8.15100548e-01 -5.75709065e-01 -6.45768252e-02
8.97712570e-02 -9.78136132e-01 -1.87592193e-01
8.73000879e-01 -3.91805203e-01 -2.90444754e-01
-5.57788029e-01 -2.39572945e-01 -7.94655472e-01
8.86355054e-01 -2.00663010e-01 -4.17263804e-01
5.54830671e-02 -6.04520689e-01 -7.94654876e-01
-2.75970132e-01 3.14753989e-01 -9.08168715e-01
6.58932259e-01 -7.51532618e-01 -3.17333783e-02
-4.08272940e-01 9.24290008e-02 9.08168530e-01
-8.17451284e-02 8.90683939e-01 -4.47213434e-01
-9.26068752e-01 6.21501866e-05 -3.77354818e-01
2.95651328e-01 -9.53110902e-01 -6.45747955e-02
4.08272988e-01 -9.24290251e-02 -9.08168514e-01
-7.46319912e-02 -5.30791940e-01 8.44209676e-01
4.75974359e-01 -8.30113793e-01 2.90447074e-01
5.89664337e-01 -6.72530376e-01 -4.47212332e-01
5.10099673e-01 4.86874384e-01 -7.09049832e-01
-6.20674970e-01 3.34680135e-01 7.09049915e-01
-6.42400783e-01 -7.09198802e-01 2.90444985e-01
5.35993000e-01 4.59405505e-03 8.44209925e-01
8.86188663e-02 -9.65587230e-01 2.44515844e-01
4.87660195e-01 -8.70641975e-01 6.45762260e-02
-8.21830551e-01 -3.52981040e-01 4.47212393e-01
-8.86354909e-01 2.00662181e-01 4.17264492e-01
-3.72368341e-01 -3.85552511e-01 -8.44210331e-01
-6.17332332e-02 6.72638092e-01 -7.37392032e-01
5.27876697e-01 9.30452882e-02 -8.44208964e-01
-3.05416128e-01 6.35585606e-01 -7.09050017e-01
8.56305470e-01 -2.21555185e-03 -5.16464946e-01
-7.81027849e-01 -1.97958881e-01 5.92290278e-01
-7.93953772e-01 5.86819131e-01 1.58999087e-01
-1.09916909e-01 -1.84706221e-01 9.76627810e-01
7.99411385e-01 -5.97303329e-01 6.45768883e-02
-9.36568922e-01 -1.96160808e-01 -2.90447220e-01
3.72369193e-01 3.85553182e-01 8.44209645e-01
-4.45310143e-01 5.07889394e-01 7.37392184e-01
3.98694561e-01 6.69979346e-01 -6.26235043e-01
-5.02307814e-01 -8.44095013e-01 1.87591220e-01
4.41761082e-01 -8.13911354e-01 -3.77353229e-01
-6.91463681e-01 5.05115305e-01 -5.16465396e-01
-8.29275783e-07 3.93744484e-07 9.99999997e-01
8.72350877e-01 -1.97492176e-01 4.47214480e-01
8.04011955e-01 -5.24865950e-02 5.92292103e-01
1.97491152e-01 8.48237172e-02 9.76627963e-01
3.48643223e-01 -7.89300121e-02 9.33926096e-01
4.95863161e-01 8.33265907e-01 2.44515141e-01
-3.28453499e-01 -1.41072068e-01 9.33925566e-01
6.42400776e-01 7.09198272e-01 -2.90446308e-01
-2.50660356e-01 6.59103425e-01 7.09050108e-01
-2.74305019e-01 9.16732086e-01 2.90446270e-01
1.21070248e-01 9.79827183e-01 -1.58999018e-01
-4.57396576e-01 -7.68626676e-01 -4.47215167e-01
5.99128724e-01 -6.83325651e-01 4.17265897e-01
-8.30574303e-02 9.04981424e-01 4.17265003e-01
7.81027659e-01 1.97957752e-01 -5.92290918e-01
-2.86230158e-01 -8.80724426e-01 -3.77354983e-01
4.81750938e-01 -2.35002412e-01 8.44209629e-01
-5.15505966e-01 -6.19227626e-01 -5.92292788e-01
7.49243026e-01 5.44278377e-01 -3.77353868e-01
7.04303574e-01 3.47170112e-02 -7.09049514e-01
-6.19608954e-01 5.15049228e-01 5.92291338e-01
7.46314171e-02 5.30792971e-01 -8.44209084e-01
-8.35797234e-01 3.98806940e-01 -3.77353952e-01
4.57397617e-01 7.68627164e-01 4.47213263e-01
7.49168973e-01 -5.44381215e-01 -3.77352553e-01
5.02307645e-01 8.44094781e-01 -1.87592735e-01
-5.54818283e-02 6.04521472e-01 7.94654360e-01
5.92079468e-01 -1.34041805e-01 -7.94653828e-01
-1.61260581e-01 -5.11179195e-01 -8.44210199e-01
-8.03443479e-01 -5.73758029e-01 1.58997780e-01
8.90943359e-01 3.82664669e-01 -2.44515211e-01
8.15100951e-01 5.75708652e-01 6.45754689e-02
1.84623264e-01 6.80560539e-01 -7.09049792e-01
-1.26499651e-01 -6.93717975e-01 -7.09050925e-01
-1.82802295e-01 -3.07188474e-01 -9.33926425e-01
-6.94066171e-01 -5.01531422e-01 -5.16467213e-01
4.64740195e-01 7.80965078e-01 -4.17265026e-01
-7.87098507e-01 -5.44165451e-01 -2.90447759e-01
4.29621090e-01 -6.81628609e-01 -5.92290608e-01
9.36569090e-01 1.96160374e-01 2.90446984e-01
3.45423060e-01 5.80461480e-01 7.37392282e-01
1.69999392e-01 -5.08340329e-01 8.44209875e-01
-7.12538232e-02 7.76371215e-01 6.26235279e-01
1.41699580e-01 -1.61613471e-01 9.76628031e-01
-6.58792771e-01 1.49144932e-01 -7.37392618e-01
8.94458078e-01 -4.17927766e-01 1.59000419e-01
9.02521766e-01 3.87638227e-01 1.87592832e-01
1.96449657e-02 -2.14036759e-01 -9.76628049e-01
-3.98694801e-01 -6.69979417e-01 6.26234805e-01
-9.13478346e-02 9.95313261e-01 -3.17345932e-02
6.91462896e-01 -5.05115267e-01 5.16466487e-01
2.86110094e-01 -8.80763552e-01 3.77354713e-01
-3.84626356e-01 -1.65198898e-01 -9.08169529e-01
1.82803073e-01 3.07189316e-01 9.33925991e-01
7.87099153e-01 5.44165327e-01 2.90446247e-01
4.77980077e-01 -8.63860302e-01 -1.58998203e-01
-1.98535649e-01 7.80880751e-01 -5.92291187e-01
-8.35021642e-01 -3.58646992e-01 -4.17266331e-01
5.11128639e-01 8.58918183e-01 3.17343839e-02
-5.10099845e-01 -4.86874778e-01 7.09049429e-01
7.60392089e-01 -1.72146427e-01 -6.26234370e-01
-9.58003648e-01 2.16882946e-01 1.87592090e-01
2.75969822e-01 -3.14752742e-01 9.08169238e-01
-8.94458371e-01 4.17927638e-01 -1.58999081e-01
-1.41699587e-01 1.61614954e-01 -9.76627789e-01
8.41596175e-01 1.58045084e-01 5.16466487e-01
7.93953836e-01 -5.86819492e-01 -1.58997471e-01
-3.21037621e-01 -9.44862403e-01 6.45746347e-02
-9.06276160e-01 4.17724250e-01 6.45752874e-02
-1.17224870e-01 -9.91003693e-01 -6.45756253e-02
1.09758226e-01 8.49244567e-01 5.16465676e-01
2.35666059e-01 -2.68782734e-01 -9.33925777e-01
-5.11128465e-01 -8.58918217e-01 -3.17361995e-02
2.74304855e-01 -9.16732336e-01 -2.90445648e-01
3.26692476e-02 -3.55970205e-01 9.33926083e-01
1.21012769e-01 9.18128472e-01 -3.77353972e-01
-6.73875336e-01 -7.21533646e-01 -1.59000716e-01
9.10587363e-01 1.68626758e-01 -3.77353518e-01
-1.70000199e-01 5.08341122e-01 -8.44209239e-01
-3.45421930e-01 -5.80460880e-01 -7.37393287e-01
5.30809088e-02 8.03973613e-01 -5.92291186e-01
-1.09757336e-01 -8.49244308e-01 -5.16466296e-01
3.84626961e-01 1.65199636e-01 9.08169135e-01
-2.62506558e-01 8.15078826e-01 5.16465690e-01
-5.90200449e-01 3.85891319e-01 -7.09049589e-01
6.47559812e-01 -7.38562716e-01 1.87593729e-01
-2.35665583e-01 2.68783259e-01 9.33925739e-01
-2.51614574e-01 4.73287037e-01 8.44209382e-01
-5.27876678e-01 -9.30458335e-02 8.44208907e-01
3.82590927e-02 -4.16851169e-01 -9.08169230e-01
-3.48642828e-01 7.89307437e-02 -9.33926185e-01
-6.77334159e-01 -7.32836027e-01 6.45739128e-02
-4.30928744e-01 -3.18765837e-01 8.44208951e-01
8.30577820e-02 -9.04981405e-01 -4.17264981e-01
-5.92079477e-01 1.34040779e-01 7.94653984e-01
-4.77980292e-01 8.63860021e-01 1.58999061e-01
-5.49385160e-01 -4.42065693e-01 -7.09051387e-01
1.26501013e-01 6.93718618e-01 7.09050047e-01
5.15506872e-01 6.19228339e-01 5.92291253e-01
7.16353709e-01 3.07678602e-01 6.26235772e-01
9.13474488e-02 -9.95313283e-01 3.17350391e-02
9.58003723e-01 -2.16883365e-01 -1.87591254e-01
-5.35992657e-01 -4.59325016e-03 -8.44210149e-01
-1.02856069e-01 -9.51347170e-01 -2.90446541e-01
9.26068623e-01 -6.26370751e-05 3.77355145e-01
-2.98370158e-01 -7.48441636e-01 -5.92292468e-01
9.97823653e-01 -1.33462175e-02 -6.45743104e-02
-8.72351496e-01 1.97491653e-01 -4.47213498e-01
-4.00214861e-01 4.56456986e-01 -7.94654067e-01
8.35022035e-01 3.58647142e-01 4.17265420e-01
9.45712771e-01 -2.14100445e-01 2.44516583e-01
3.16924453e-01 9.02884200e-01 -2.90446235e-01
-9.97823641e-01 1.33458205e-02 6.45744856e-02
3.12753035e-01 9.36432000e-01 1.58998895e-01
2.09633195e-01 -4.74582911e-02 -9.76627688e-01
1.17224682e-01 9.91003731e-01 6.45753746e-02
-1.21070718e-01 -9.79827150e-01 1.58998858e-01
-1.96444800e-02 2.14038012e-01 9.76627779e-01
7.73762972e-01 -3.66817987e-01 -5.16464360e-01
-7.60392010e-01 1.72145167e-01 6.26234800e-01
-4.41761208e-01 8.13910894e-01 3.77354060e-01
-9.45713062e-01 2.14100265e-01 -2.44515595e-01
-4.81750807e-01 2.35002843e-01 -8.44209586e-01
6.20640690e-01 2.66567872e-01 -7.37391830e-01
-9.18371014e-01 -3.94446026e-01 3.17333880e-02
-7.16353230e-01 -3.07677926e-01 -6.26236651e-01
9.78724949e-01 1.94749608e-01 6.45760767e-02
-6.20640831e-01 -2.66568600e-01 7.37391439e-01
-6.81311456e-01 -4.30124155e-01 5.92290389e-01
-7.04303664e-01 -3.47182613e-02 7.09049352e-01
-8.73000717e-01 3.91804591e-01 2.90446044e-01
-2.95651641e-01 9.53110755e-01 6.45754911e-02
9.87245551e-01 -8.07226648e-03 1.59000206e-01
-3.26693432e-02 3.55971441e-01 -9.33925613e-01
2.50661241e-01 -6.59103283e-01 -7.09049935e-01
-8.90943285e-01 -3.82665471e-01 2.44514200e-01
-4.87660646e-01 8.70641783e-01 -6.45753537e-02
-5.13985296e-01 5.86215586e-01 -6.26235101e-01
9.74827161e-01 -2.20691732e-01 3.17359601e-02
-6.98855586e-01 -9.40607189e-02 -7.09051092e-01
2.98371512e-01 7.48442114e-01 5.92291179e-01
-7.49168767e-01 5.44380429e-01 3.77354077e-01
2.86230795e-01 8.80724690e-01 3.77353882e-01
-6.37562782e-01 -6.71651945e-01 -3.77355751e-01
-9.56629241e-01 2.24061139e-02 2.90445268e-01
2.14069193e-01 3.59728289e-01 -9.08168456e-01
5.57788616e-01 2.39573814e-01 7.94654797e-01
-6.39252817e-01 7.29087086e-01 2.44515543e-01
9.18371246e-01 3.94445417e-01 -3.17344099e-02
-4.10377168e-01 7.51567571e-01 -5.16465648e-01
3.05414982e-01 -6.35585371e-01 7.09050720e-01
-9.02521335e-01 -3.87638765e-01 -1.87593774e-01
7.60758401e-01 -5.80419675e-01 2.90447342e-01
6.94066786e-01 5.01531982e-01 5.16465843e-01
1.61261728e-01 5.11179969e-01 8.44209506e-01
8.35796544e-01 -3.98807226e-01 3.77355185e-01
-3.12752852e-01 -9.36431884e-01 -1.58999934e-01
-2.09633162e-01 4.74589858e-02 9.76627655e-01
-9.78724819e-01 -1.94750075e-01 -6.45765565e-02
-3.10444086e-01 -5.21679147e-01 7.94654221e-01
-8.41595970e-01 -1.58044869e-01 -5.16466883e-01
9.56629248e-01 -2.24068068e-02 -2.90445216e-01
-4.95862602e-01 -8.33265671e-01 -2.44517077e-01
9.69283933e-01 1.87638354e-01 -1.58998461e-01
-6.47560534e-01 7.38562408e-01 -1.87592433e-01
1.02856297e-01 9.51347270e-01 2.90446125e-01
4.00213535e-01 -4.56456498e-01 7.94655013e-01
-8.97714302e-02 9.78136041e-01 1.87592573e-01
-3.16925042e-01 -9.02884211e-01 2.90445549e-01
7.12546540e-02 -7.76370885e-01 -6.26235600e-01
-5.89664163e-01 6.72529621e-01 4.47213682e-01
-4.36328839e-01 3.11332437e-01 8.44209246e-01
4.30928558e-01 3.18765777e-01 -8.44209076e-01
9.06276178e-01 -4.17724439e-01 -6.45738960e-02
-9.87245598e-01 8.07202323e-03 -1.58999894e-01
-5.87970292e-01 -6.22539156e-01 5.16464839e-01
-8.56305554e-01 2.21444991e-03 5.16464798e-01
2.97397792e-01 -9.41421082e-01 1.58999690e-01
-4.75975272e-01 8.30113611e-01 -2.90446092e-01
-7.60759053e-01 5.80419427e-01 -2.90446119e-01
3.10443758e-01 5.21679652e-01 -7.94654025e-01
5.13983916e-01 -5.86216033e-01 6.26235815e-01
6.77334338e-01 7.32835718e-01 -6.45756053e-02
4.10375939e-01 -7.51567805e-01 5.16466285e-01
3.28453508e-01 1.41072376e-01 -9.33925524e-01
-4.64740600e-01 -7.80965311e-01 4.17264130e-01
4.45310886e-01 -5.07889697e-01 -7.37391535e-01
-2.97398341e-01 9.41421037e-01 -1.58998921e-01
-8.04012080e-01 5.24868524e-02 -5.92291907e-01
-6.58932470e-01 7.51532369e-01 3.17347468e-02
5.49385890e-01 4.42066531e-01 7.09050298e-01
1.98534287e-01 -7.80880476e-01 5.92292004e-01
-5.99129549e-01 6.83325581e-01 -4.17264822e-01
-9.10587449e-01 -1.68627712e-01 3.77352866e-01
4.36329241e-01 -3.11332653e-01 -8.44208967e-01
-9.74827219e-01 2.20691592e-01 -3.17349782e-02
6.81311332e-01 4.30123431e-01 -5.92291069e-01
-2.66720023e-01 -8.13710001e-01 5.16465352e-01
-5.30820135e-02 -8.03973238e-01 5.92291592e-01
-2.14069340e-01 -3.59727360e-01 9.08168783e-01
-7.73762619e-01 3.66817040e-01 5.16465547e-01
8.17439508e-02 -8.90683735e-01 4.47214054e-01
-7.49242911e-01 -5.44279188e-01 3.77352912e-01
-3.82581462e-02 4.16852185e-01 9.08168797e-01
-1.21013599e-01 -9.18128407e-01 3.77353860e-01
-8.86195315e-02 9.65587298e-01 -2.44515332e-01
2.62506880e-01 -8.15078896e-01 -5.16465425e-01
6.19609486e-01 -5.15050065e-01 -5.92290066e-01
6.98855870e-01 9.40613663e-02 7.09050726e-01
1.09917060e-01 1.84707401e-01 -9.76627576e-01
9.17722991e-07 1.14454416e-06 -1.00000000e+00
6.58792477e-01 -1.49144628e-01 7.37392943e-01
6.20675318e-01 -3.34681123e-01 -7.09049154e-01
-7.48221735e-01 2.98924175e-01 -5.92290952e-01
2.51615530e-01 -4.73286690e-01 -8.44209299e-01
-7.99411661e-01 5.97303117e-01 -6.45753629e-02
2.66719334e-01 8.13710065e-01 -5.16465614e-01
-9.69283898e-01 -1.87639018e-01 1.58997852e-01
6.73875821e-01 7.21533614e-01 1.58998819e-01
6.37563648e-01 6.71652206e-01 3.77353826e-01
-1.97490645e-01 -8.48227423e-02 -9.76628154e-01
3.21037462e-01 9.44862400e-01 -6.45754984e-02
8.03443692e-01 5.73757418e-01 -1.58998946e-01
