-7.34637295e-01 -6.60511338e-01 1.55025213e-01
9.72335670e-01 1.02358564e-01 2.09966827e-01
-6.56629090e-01 -1.40333752e-01 -7.41042965e-01
7.02874321e-01 -6.77538088e-01 2.16586770e-01
-9.33216494e-01 -1.82461313e-02 -3.58851019e-01
-9.46097832e-02 -8.28162603e-01 -5.52445193e-01
3.60167080e-01 -3.03877903e-01 -8.82007877e-01
-9.67722326e-01 -1.70263480e-01 -1.85805940e-01
-4.43249524e-01 -1.59974890e-01 -8.82007876e-01
3.91918064e-01 -8.03257426e-01 4.48528413e-01
-7.45654350e-01 6.55051068e-01 1.22097047e-01
9.38867843e-03 -5.68998541e-01 8.22284934e-01
3.78864861e-02 6.70387901e-01 7.41042965e-01
-3.00960926e-01 5.75942799e-01 7.60073953e-01
-4.29797662e-01 2.45951548e-01 -8.68781794e-01
-4.29386377e-01 8.99451720e-01 8.13261430e-02
4.88072853e-01 2.92630104e-01 8.22284934e-01
1.57970441e-02 -7.48798836e-01 6.62609052e-01
-1.70162815e-01 -9.77822544e-01 -1.22097047e-01
9.93641228e-01 -7.78663493e-02 8.13261426e-02
2.09114027e-01 -6.37766868e-01 7.41299363e-01
-6.24388036e-01 7.81002024e-01 -1.32445692e-02
7.03197886e-01 5.99397515e-01 3.82407312e-01
4.69023071e-01 -1.15317240e-01 -8.75625087e-01
4.50806634e-01 8.17312257e-01 -3.58851019e-01
-3.36494817e-01 7.48244704e-01 -5.71752657e-01
2.49540201e-01 -4.81174607e-01 -8.40357475e-01
8.53893838e-01 -2.63984045e-01 -4.48528414e-01
-7.05793216e-01 -4.44298751e-01 5.51774008e-01
-6.55563808e-01 -6.07501733e-01 -4.48528413e-01
1.26661296e-01 -6.37373127e-01 -7.60073953e-01
5.36325504e-01 -8.07246953e-01 2.46388536e-01
-6.32147346e-01 -8.74464768e-02 7.69897946e-01
8.44170708e-01 4.70732961e-01 2.56488394e-01
-7.91665620e-01 -5.59069080e-01 -2.46388536e-01
6.31313662e-01 -7.52940378e-01 -1.85805941e-01
-2.98166801e-01 9.18276861e-01 -2.60507513e-01
-4.98271897e-01 7.59735161e-01 4.17765007e-01
-1.06164637e-02 6.38078713e-01 -7.69897945e-01
-7.49572922e-01 4.56075034e-01 4.79724920e-01
-8.83352159e-02 9.65137078e-01 -2.46388536e-01
5.84013317e-01 5.76218139e-01 5.71752657e-01
-8.29752056e-01 4.95706798e-01 2.56488394e-01
8.81898609e-02 -9.04264866e-01 -4.17765007e-01
-7.38434374e-01 -5.70912097e-01 3.58851019e-01
5.39926981e-01 8.27312540e-01 -1.55025213e-01
1.03118230e-01 2.48861290e-01 9.63034106e-01
1.20331512e-03 -1.32193963e-01 -9.91223137e-01
8.03827934e-01 2.20601365e-01 5.52445193e-01
4.88650671e-01 4.28378464e-01 -7.60073953e-01
-1.72414034e-01 -6.67161958e-01 7.24684981e-01
-3.60986776e-01 8.84753713e-01 2.94787069e-01
-4.88641044e-02 -1.22837255e-01 9.91223137e-01
4.46510186e-01 -8.81246752e-01 -1.55025213e-01
9.07085899e-01 5.16485404e-02 4.17765006e-01
-9.43138306e-01 -3.32400565e-01 1.68090633e-10
-5.41479535e-01 2.44791499e-02 -8.40357474e-01
-8.58778271e-01 1.39318164e-01 -4.93041915e-01
-5.64254851e-01 -8.21585371e-01 8.13261429e-02
-5.92960353e-01 5.85834728e-01 5.52445193e-01
-4.72338559e-01 8.70393402e-01 -1.38966227e-01
-3.95290096e-01 -6.92665921e-01 6.03290695e-01
8.30824432e-02 4.63852793e-01 -8.82007876e-01
-9.54699205e-01 2.86243754e-01 -8.13261426e-02
3.41289014e-01 6.15124694e-02 -9.37943508e-01
9.88561611e-01 1.50234890e-01 -1.32445697e-02
8.64306186e-01 5.02791606e-01 1.32445693e-02
-5.74812952e-01 7.90888109e-01 2.09966828e-01
-8.40897996e-01 -3.68285366e-01 3.96555734e-01
-2.67079314e-01 -3.51276384e-02 9.63034106e-01
3.05424623e-01 8.45924335e-01 4.37181677e-01
2.34854021e-01 8.87461063e-01 -3.96555734e-01
-7.89021745e-01 -4.31644376e-01 -4.37181677e-01
-3.76344597e-02 9.98877712e-01 -2.87569744e-02
-4.45604286e-01 -1.53293596e-01 8.82007877e-01
9.31900571e-01 3.41545951e-01 -1.22097047e-01
3.08736066e-01 -8.13382881e-01 -4.93041916e-01
-1.15084988e-01 6.50548800e-02 -9.91223137e-01
2.29455240e-01 -9.69915641e-01 -8.13261429e-02
6.32793068e-01 2.72772085e-01 -7.24684981e-01
7.39393481e-01 -5.44096343e-01 3.96555734e-01
2.93074384e-01 3.83911595e-01 8.75625087e-01
-9.00129096e-01 -3.77965319e-01 -2.16586770e-01
-9.29676872e-01 2.20910609e-01 -2.94787069e-01
-2.30085064e-01 -1.40093449e-01 -9.63034106e-01
-5.17613518e-01 -8.44253892e-01 -1.38966227e-01
5.57900607e-01 -3.09845230e-01 -7.69897946e-01
3.55558291e-01 -3.09257834e-01 8.82007876e-01
4.97698301e-01 -6.69209867e-01 -5.51774008e-01
-5.81652809e-01 -6.46985069e-01 4.93041915e-01
-5.65720924e-01 6.70689077e-01 -4.79724919e-01
2.40342803e-01 5.91178899e-01 7.69897945e-01
7.42350654e-01 9.93214440e-02 -6.62609053e-01
5.89011851e-01 8.06338431e-01 5.36970593e-02
5.13774283e-01 -1.72728982e-01 8.40357474e-01
-8.70692418e-01 3.09288476e-01 3.82407312e-01
6.49261558e-01 -2.73315914e-02 7.60073952e-01
-6.83704642e-01 6.41618051e-01 3.47669728e-01
1.83701819e-01 9.82982015e-01 4.83218579e-12
-2.97973316e-01 -8.25273230e-01 -4.79724920e-01
1.22736980e-01 9.68517323e-01 -2.16586770e-01
-8.91600369e-01 6.22177132e-02 4.48528414e-01
-9.92818013e-01 -1.16126784e-01 2.87569747e-02
8.63694240e-01 1.54584153e-01 -4.79724920e-01
-2.96039191e-01 1.80617752e-01 9.37943508e-01
-7.38955403e-01 5.77122754e-01 -3.47669727e-01
-7.60738822e-01 -2.36223130e-01 6.04545348e-01
9.52774925e-01 1.62584274e-01 -2.56488394e-01
-7.40742315e-01 -2.92960315e-01 -6.04545347e-01
-1.80609382e-01 -4.61083989e-01 8.68781794e-01
-4.06474827e-01 -3.58577090e-01 8.40357475e-01
5.50042205e-01 6.74064717e-01 -4.93041915e-01
-1.17373146e-01 -3.26321191e-01 -9.37943508e-01
-4.91572187e-01 4.82895913e-01 7.24684982e-01
-4.97461530e-01 2.76368437e-01 8.22284934e-01
7.64514744e-01 3.32146826e-01 -5.52445193e-01
3.36408663e-01 9.23203858e-01 -1.85805940e-01
-3.48300631e-01 -5.48611207e-01 7.60073953e-01
-9.92815491e-01 1.06930011e-01 5.36970596e-02
6.51136815e-01 -6.47120080e-01 -3.96555734e-01
-1.30325265e-01 -9.28515528e-01 -3.47669727e-01
-7.61737756e-01 6.36276593e-01 -1.22097047e-01
-6.17189574e-01 7.43835152e-01 -2.56488394e-01
4.89615139e-01 7.41296810e-02 8.68781794e-01
9.44334490e-01 -2.00918406e-01 -2.60507514e-01
1.16660082e-01 7.87981820e-01 -6.04545347e-01
1.22227710e-01 -3.18211108e-01 -9.40107482e-01
-1.44186514e-02 -9.66439758e-01 2.56488394e-01
-8.39996593e-03 -3.46686337e-01 9.37943508e-01
4.47765296e-01 4.99981493e-01 7.41299363e-01
4.99682305e-01 7.41039713e-01 4.48528413e-01
7.23759163e-01 -2.98276499e-01 -6.22257024e-01
4.80957491e-02 -9.76524823e-01 -2.09966828e-01
-6.15311968e-01 2.08994663e-01 -7.60073952e-01
-1.98330030e-01 8.71485778e-01 -4.48528413e-01
-2.23915869e-01 2.64808722e-01 -9.37943508e-01
-4.84362879e-01 -7.86865458e-01 -3.82407312e-01
-3.18773974e-02 8.33384231e-01 5.51774008e-01
-2.10867581e-01 -8.06436093e-01 5.52445193e-01
-5.99516196e-01 -3.02383292e-01 7.41042965e-01
-9.53160707e-01 1.53689628e-01 2.60507514e-01
-3.64173575e-01 -9.31236913e-01 -1.32445694e-02
-9.67259120e-01 -6.08480348e-02 2.46388536e-01
-9.32577836e-01 3.33147067e-01 1.38966227e-01
-6.20194607e-01 -4.77655572e-01 -6.22257024e-01
7.54802741e-01 6.41062563e-01 1.38966227e-01
4.82409860e-01 -7.99066126e-01 -3.58851019e-01
1.30812236e-01 1.91010713e-02 9.91223137e-01
-6.28195474e-03 2.69306235e-01 -9.63034106e-01
-4.57190221e-01 5.93233804e-01 -6.62609052e-01
3.21698204e-01 -6.66719166e-01 -6.72306344e-01
5.79879653e-01 -6.87467650e-01 4.37181677e-01
-5.47284144e-01 -3.28233484e-01 -7.69897945e-01
-3.97522718e-01 -8.93246674e-01 2.09966828e-01
1.75794180e-01 7.76930711e-01 6.04545348e-01
-4.79014385e-01 6.18540639e-02 8.75625087e-01
-2.04700951e-01 9.66470229e-01 1.55025213e-01
2.07012888e-01 -7.93879439e-01 5.71752657e-01
-9.38202356e-01 -2.69937973e-01 2.16586770e-01
9.39338246e-01 -3.05958891e-01 1.55025213e-01
3.91804544e-01 -5.03732423e-01 7.69897945e-01
-1.94463691e-01 -9.73281143e-01 1.22097047e-01
1.13881672e-01 6.71390832e-02 -9.91223137e-01
3.76803477e-01 6.86159847e-01 6.22257024e-01
-4.02221235e-01 6.88664225e-01 6.03290695e-01
7.97511332e-01 4.00169509e-03 6.03290695e-01
-6.56879322e-01 1.37785374e-01 7.41299364e-01
-5.52624090e-01 4.11628830e-01 -7.24684981e-01
2.91939333e-01 4.56695458e-01 -8.40357475e-01
7.08195602e-01 -2.15553173e-01 6.72306343e-01
-1.67423277e-01 7.21091968e-01 6.72306344e-01
1.67494532e-01 -9.08685991e-01 3.82407312e-01
7.77392116e-01 -5.90552004e-01 -2.16586770e-01
2.35328036e-01 9.47476061e-01 2.16586770e-01
-2.69479101e-01 8.27218643e-01 4.93041915e-01
-5.85725803e-01 -7.55000574e-01 2.94787069e-01
-8.85990836e-01 -2.40340983e-01 -3.96555734e-01
2.36367018e-01 -1.29212785e-01 -9.63034106e-01
-7.42239908e-01 2.91753760e-01 -6.03290695e-01
-7.91026205e-01 2.17661299e-01 5.71752658e-01
3.95840261e-01 9.17869012e-01 2.87569744e-02
2.06958772e-02 8.99135063e-01 -4.37181677e-01
-2.58047774e-01 9.64638778e-01 -5.36970592e-02
9.46712579e-01 -1.29753138e-01 2.94787069e-01
8.16246330e-01 -8.27092919e-02 -5.71752658e-01
5.63697284e-01 7.80567668e-02 -8.22284934e-01
-2.28900544e-01 -2.52591496e-01 9.40107482e-01
7.37670614e-01 -3.89085479e-01 5.51774007e-01
6.62306101e-01 -1.08746870e-01 -7.41299364e-01
5.61629710e-01 -3.68004610e-01 7.41042965e-01
9.23626916e-01 -2.60378286e-02 -3.82407312e-01
-8.67583396e-01 4.97115310e-01 1.32445697e-02
-8.01689789e-02 -6.84400915e-01 -7.24684981e-01
-3.34379195e-01 -3.48527274e-01 -8.75625087e-01
-2.01861042e-02 -8.77186709e-01 4.79724919e-01
4.16546633e-01 6.11958400e-01 -6.72306344e-01
-5.40772324e-01 -5.05538795e-01 6.72306344e-01
-2.36975499e-01 6.27947344e-01 -7.41299363e-01
4.49847140e-01 -4.98490597e-01 -7.41042965e-01
1.77775095e-01 -9.74209630e-01 1.38966227e-01
-3.49447785e-01 4.49147785e-01 -8.22284934e-01
-6.56377336e-01 3.60718777e-01 6.62609053e-01
-4.08814001e-01 -8.11383702e-01 4.17765007e-01
-4.79751513e-01 -6.65535412e-01 -5.71752657e-01
-7.06377800e-01 -7.05795317e-01 -5.36970593e-02
-6.46167689e-01 -7.17358455e-01 -2.60507513e-01
7.25243965e-01 6.83671888e-01 -8.13261429e-02
4.30933616e-01 8.68094988e-01 2.46388536e-01
1.85940002e-01 -4.45765659e-01 8.75625087e-01
-2.13805210e-01 -9.12914614e-01 3.47669727e-01
9.00459951e-02 4.62551429e-01 8.82007876e-01
-1.04300380e-01 3.24529434e-01 9.40107482e-01
1.97126241e-02 9.82388704e-01 1.85805940e-01
6.56152635e-01 6.94668485e-01 -2.94787069e-01
8.80000835e-01 -4.06067998e-01 -2.46388536e-01
8.83870704e-01 -4.66846458e-01 -2.87569747e-02
3.33200924e-01 -7.19379383e-02 9.40107482e-01
-1.07299455e-01 5.31306072e-01 8.40357475e-01
9.40118041e-01 3.18230075e-01 1.22097047e-01
-4.39264037e-01 8.12903287e-01 -3.82407312e-01
8.69280667e-01 3.51392774e-01 -3.47669728e-01
-6.69904962e-01 4.96015777e-01 -5.52445193e-01
3.43481231e-01 -9.02306200e-01 2.60507513e-01
-8.46236244e-01 -5.32031254e-01 -2.87569743e-02
-2.14249500e-01 -5.27204552e-01 -8.22284934e-01
3.30703595e-01 7.65624305e-01 -5.51774008e-01
-8.69743179e-01 4.46610271e-01 -2.09966827e-01
3.27721062e-03 -9.99906916e-01 1.32445693e-02
6.24082232e-01 -4.95021504e-01 -6.04545348e-01
2.14465048e-01 2.64957857e-01 -9.40107482e-01
-3.09005756e-01 3.86954308e-01 8.68781794e-01
6.23786121e-01 4.96921736e-01 -6.03290695e-01
9.89952077e-01 -2.61395096e-02 -1.38966227e-01
-4.25330603e-01 -5.19200474e-01 -7.41299363e-01
-3.36692759e-01 5.32532520e-02 -9.40107482e-01
1.89854266e-03 -4.95191468e-01 -8.68781794e-01
1.63961084e-01 -2.13733652e-01 9.63034106e-01
7.69759026e-01 4.21111675e-01 4.79724919e-01
3.04439158e-01 1.66068584e-01 9.37943508e-01
-8.19481305e-02 1.03736183e-01 9.91223137e-01
-8.60629886e-01 -4.74122719e-01 1.85805940e-01
-2.85160434e-01 -6.92555247e-01 -6.62609052e-01
-7.82633597e-01 -1.67585403e-02 6.22257024e-01
-8.85304275e-01 -1.58456685e-01 4.37181677e-01
8.21647430e-01 5.29914552e-01 -2.09966828e-01
6.40580293e-01 3.88080059e-01 6.62609052e-01
-3.35585351e-01 -9.06419426e-01 -2.56488394e-01
7.39021415e-01 5.28507093e-01 -4.17765007e-01
8.40917262e-01 -5.08265985e-01 1.85805940e-01
4.03803640e-01 -9.13268442e-01 5.36970592e-02
2.73524237e-01 -9.15579093e-01 -2.94787069e-01
8.97509853e-01 2.71296563e-01 3.47669727e-01
5.96977751e-01 -8.01742228e-01 2.87569742e-02
8.51131910e-01 -1.80233574e-01 4.93041915e-01
6.09679476e-01 7.48616572e-01 2.60507513e-01
-7.38244837e-01 5.47607658e-02 -6.72306343e-01
2.06781950e-01 6.38824349e-01 -7.41042965e-01
6.63986222e-01 1.84266045e-01 7.24684981e-01
-1.34643876e-01 4.63844515e-01 -8.75625087e-01
5.84944643e-01 -5.40707581e-01 6.04545347e-01
-8.27211276e-01 3.75757773e-01 -4.17765006e-01
7.68325867e-01 -4.67490687e-01 -4.37181677e-01
4.05830120e-01 -6.69401307e-01 6.22257024e-01
9.64425574e-01 -2.58843462e-01 -5.36970596e-02
1.18453786e-01 -7.88675496e-01 -6.03290695e-01
-1.03564556e-01 7.75932071e-01 -6.22257024e-01
-9.86437167e-01 5.39342120e-02 -1.55025213e-01
7.59436487e-01 -6.50581450e-01 -1.81729177e-10
4.27899119e-01 2.49239920e-01 -8.68781794e-01
8.63641566e-01 -3.54046878e-01 3.58851019e-01
-1.25207192e-01 9.24958975e-01 3.58851019e-01
-8.28401896e-01 -9.64144385e-02 -5.51774007e-01
1.01504515e-01 9.12381709e-01 3.96555734e-01
