-7.33917334e-01 2.47963911e-01 6.32360121e-01
-9.17027026e-01 3.20634275e-01 2.37181626e-01
1.93382406e-01 9.80569514e-01 -3.29646773e-02
-7.99755467e-01 -3.39810814e-01 -4.94893668e-01
-2.98292583e-01 6.86312251e-01 6.63322779e-01
9.71864128e-01 2.11939251e-01 1.02771020e-01
8.31664186e-12 -4.20577976e-11 -9.99999939e-01
2.86838903e-02 -2.04371506e-01 9.78473117e-01
9.70665720e-01 4.47830173e-02 2.36225676e-01
7.65124551e-01 -6.43881147e-01 1.22096846e-03
-7.74427292e-01 -1.80687879e-01 6.06312076e-01
-5.12446783e-01 -6.73981378e-01 -5.32115901e-01
-6.15128337e-01 -2.46134088e-01 7.49022851e-01
-3.36415715e-01 5.06401114e-01 -7.93966172e-01
-7.04192494e-01 -1.96961123e-03 7.10006435e-01
4.77213605e-01 4.39794665e-01 7.60820557e-01
5.33989157e-01 5.90402659e-01 6.05211000e-01
-6.66868220e-01 -4.10371376e-01 6.21998543e-01
9.11553810e-01 2.85938935e-01 2.95480308e-01
-5.98970524e-01 1.79230709e-01 7.80455482e-01
-2.33537135e-01 -3.03351138e-01 -9.23817288e-01
-8.54957017e-02 -5.86896421e-01 8.05135501e-01
3.44871124e-01 -8.86537655e-01 -3.08406966e-01
9.31477930e-01 -1.05405022e-01 -3.48193345e-01
-1.42681342e-01 5.66247120e-01 8.11792051e-01
7.02412139e-01 -3.33178507e-02 -7.10990170e-01
-3.96108166e-01 -1.56845482e-01 -9.04708630e-01
2.00659874e-01 7.41160104e-02 -9.76853271e-01
-1.97666732e-01 3.75207223e-01 9.05619961e-01
-1.23608731e-01 -7.89504135e-01 -6.01168886e-01
-7.33623124e-01 6.30136632e-01 -2.54410899e-01
4.34264865e-01 -7.56291007e-01 4.89324023e-01
-7.69182200e-01 -1.59520841e-01 -6.18798650e-01
-8.21498730e-01 -4.98186227e-01 2.77399268e-01
1.26068869e-01 -5.83983007e-01 -8.01916698e-01
6.34597276e-01 -7.63412366e-01 -1.20365448e-01
2.12316439e-01 8.96958099e-01 -3.87798724e-01
-8.38892351e-01 3.03251201e-01 4.51993791e-01
-8.86759573e-02 -6.36694879e-01 -7.66000073e-01
4.01696170e-01 -9.09291527e-01 1.08761751e-01
1.23608731e-01 7.89504135e-01 -6.01168886e-01
-5.35380384e-01 4.08249111e-01 -7.39391924e-01
6.66868219e-01 4.10371376e-01 6.21998543e-01
-2.17623268e-01 8.43555791e-01 -4.90972179e-01
2.33537136e-01 3.03351138e-01 -9.23817288e-01
-2.12316439e-01 -8.96958099e-01 -3.87798724e-01
-5.12358155e-01 5.92287638e-01 6.21839650e-01
8.38892351e-01 -3.03251201e-01 4.51993790e-01
3.24320385e-01 -8.91541106e-01 3.16181565e-01
-4.89820254e-01 -5.27511198e-01 -6.94123887e-01
1.47110620e-01 7.32589172e-01 6.64583819e-01
4.34086983e-01 -1.06004870e-01 8.94612524e-01
-5.93993790e-01 7.99515773e-01 8.91398721e-02
3.60120794e-01 -8.56540542e-02 -9.28965168e-01
-4.30725823e-01 -9.02482418e-01 8.66339963e-04
6.87947208e-01 6.82875804e-01 2.45783046e-01
8.92623191e-01 1.22818899e-01 -4.33750278e-01
7.04192494e-01 1.96961121e-03 7.10006435e-01
-9.31477930e-01 1.05405022e-01 -3.48193345e-01
-4.96074928e-01 5.92887578e-01 -6.34345260e-01
8.68965489e-02 9.68360219e-01 -2.33938982e-01
-3.08818052e-02 -2.37659373e-01 -9.70857466e-01
-9.70665720e-01 -4.47830173e-02 2.36225676e-01
-3.90954048e-02 -9.90323284e-01 1.33159148e-01
-7.93855116e-01 -6.04867448e-01 6.26851887e-02
-2.86319274e-01 -9.44206760e-01 1.62772501e-01
-2.72628265e-01 -4.92973030e-01 -8.26227160e-01
-4.01696170e-01 9.09291527e-01 1.08761751e-01
2.98292583e-01 -6.86312251e-01 6.63322779e-01
-3.78865531e-01 -7.35543867e-01 5.61637069e-01
6.73238068e-01 5.29411551e-01 -5.16211052e-01
-1.04106144e-01 9.39821931e-01 3.25417713e-01
7.97025138e-01 -4.96331216e-01 3.44102158e-01
6.96317285e-01 5.60786636e-01 4.47951608e-01
6.48222967e-01 3.70658224e-01 -6.65146138e-01
-5.14268387e-01 -8.34561604e-01 1.97572720e-01
3.36415715e-01 -5.06401114e-01 -7.93966172e-01
-6.87947207e-01 -6.82875804e-01 2.45783046e-01
-5.36631485e-01 -2.43228996e-03 -8.43813149e-01
8.54957017e-02 5.86896421e-01 8.05135501e-01
1.24982420e-01 9.39327657e-01 3.19441678e-01
9.69624207e-01 8.00233004e-02 -2.31138792e-01
3.90954048e-02 9.90323284e-01 1.33159148e-01
-2.90335345e-01 6.86848988e-01 -6.66291058e-01
7.36965192e-01 6.59356083e-01 -1.48767752e-01
-5.33989157e-01 -5.90402659e-01 6.05211000e-01
7.92804436e-01 5.12899054e-01 -3.29234940e-01
-1.00635622e-02 8.58743555e-01 5.12306835e-01
-3.61911390e-01 5.13168662e-01 7.78253278e-01
-2.28073288e-02 -4.11523612e-01 9.11113743e-01
-4.89666919e-03 8.91678302e-01 -4.52643096e-01
6.39865022e-01 6.87274213e-01 -3.43841341e-01
6.85573610e-01 -4.49419074e-01 -5.72722665e-01
-9.82199421e-01 1.47447218e-01 1.16377097e-01
2.24866474e-01 -8.31654122e-01 5.07726848e-01
-7.98510371e-01 4.69150371e-01 -3.77198980e-01
5.36631485e-01 2.43228993e-03 -8.43813149e-01
-4.34086983e-01 1.06004870e-01 8.94612524e-01
-7.97025138e-01 4.96331216e-01 3.44102158e-01
4.96074929e-01 -5.92887578e-01 -6.34345260e-01
-2.60912280e-01 9.61074085e-01 -9.08920973e-02
-1.08296254e-01 -2.45165250e-02 9.93816373e-01
-5.68467484e-01 3.98757902e-01 7.19608882e-01
1.97666732e-01 -3.75207223e-01 9.05619961e-01
7.33623124e-01 -6.30136632e-01 -2.54410899e-01
-9.04503189e-01 -4.17664410e-01 8.61999579e-02
4.51703533e-01 3.53808709e-01 -8.19013562e-01
5.68467484e-01 -3.98757902e-01 7.19608882e-01
-4.74213172e-02 9.96715847e-01 -6.56409251e-02
8.35920417e-01 -2.76947371e-01 -4.73853513e-01
-2.24866474e-01 8.31654122e-01 5.07726848e-01
-9.69624207e-01 -8.00233004e-02 -2.31138792e-01
9.82199421e-01 -1.47447218e-01 1.16377097e-01
2.28073288e-02 4.11523612e-01 9.11113743e-01
7.14677263e-01 -6.63010092e-01 2.22831900e-01
-6.05625923e-01 -1.92184666e-01 -7.72193112e-01
2.17623268e-01 -8.43555791e-01 -4.90972179e-01
3.29987215e-01 9.23534116e-01 -1.95430679e-01
7.93855116e-01 6.04867448e-01 6.26851887e-02
5.93993790e-01 -7.99515773e-01 8.91398721e-02
8.33174576e-01 -6.69364453e-02 5.48944173e-01
3.59417083e-01 -3.04424462e-01 -8.82125274e-01
-4.11140313e-01 -2.64842126e-01 8.72251339e-01
5.46928436e-01 7.29659267e-01 4.10446939e-01
9.99344348e-01 3.32111667e-02 -1.44184326e-02
-5.38836033e-01 -7.16190145e-02 8.39360798e-01
-9.25974620e-01 1.25081969e-01 3.56266119e-01
4.08267784e-01 -3.17745392e-01 8.55777650e-01
5.14268387e-01 8.34561604e-01 1.97572719e-01
1.04106144e-01 -9.39821931e-01 3.25417713e-01
-8.59945691e-01 4.95692517e-01 1.21582697e-01
-2.56944828e-01 -4.39982502e-01 8.60462003e-01
-8.09325992e-01 -3.53795367e-01 4.68850012e-01
-3.21569628e-01 -6.02721141e-01 7.30287813e-01
9.43752352e-01 -3.30570202e-01 -7.40524490e-03
-2.37264886e-01 1.60993553e-01 9.58011778e-01
4.89666923e-03 -8.91678302e-01 -4.52643097e-01
-1.93382406e-01 -9.80569514e-01 -3.29646774e-02
-8.35920417e-01 2.76947371e-01 -4.73853513e-01
-9.13397868e-01 3.17088420e-01 -2.55263074e-01
-6.85573610e-01 4.49419074e-01 -5.72722665e-01
1.00635622e-02 -8.58743555e-01 5.12306835e-01
9.58317712e-01 2.65885472e-01 -1.04556517e-01
1.86962492e-01 2.51307317e-01 9.49678774e-01
7.69182200e-01 1.59520841e-01 -6.18798650e-01
-1.90787029e-01 9.73556305e-01 1.25652083e-01
-2.86838903e-02 2.04371506e-01 9.78473117e-01
-8.92623191e-01 -1.22818899e-01 -4.33750278e-01
9.13397868e-01 -3.17088420e-01 -2.55263074e-01
9.00696552e-01 3.09537619e-01 -3.04847742e-01
-1.47110620e-01 -7.32589172e-01 6.64583819e-01
-9.58317712e-01 -2.65885472e-01 -1.04556517e-01
6.97057605e-01 -4.62722060e-01 5.47721697e-01
-5.49232811e-01 2.08360962e-01 -8.09276795e-01
5.12446783e-01 6.73981378e-01 -5.32115901e-01
8.93034677e-01 1.12898175e-01 4.35595134e-01
4.11140313e-01 2.64842126e-01 8.72251339e-01
-3.60120794e-01 8.56540542e-02 -9.28965168e-01
7.99755467e-01 3.39810814e-01 -4.94893668e-01
-3.59417083e-01 3.04424462e-01 -8.82125274e-01
-6.34597276e-01 7.63412366e-01 -1.20365448e-01
-4.51779424e-01 -8.20924240e-01 -3.49254494e-01
-4.77213605e-01 -4.39794665e-01 7.60820557e-01
-6.39865022e-01 -6.87274213e-01 -3.43841341e-01
-5.57042177e-01 -8.14579558e-01 -1.61753325e-01
3.19219419e-01 7.41013557e-02 9.44779375e-01
2.60912280e-01 -9.61074085e-01 -9.08920973e-02
-8.39930025e-02 7.55356356e-01 -6.49909126e-01
9.80443625e-01 -1.47290515e-01 -1.30521213e-01
-4.08267784e-01 3.17745392e-01 8.55777650e-01
5.35380384e-01 -4.08249111e-01 -7.39391924e-01
-9.11553810e-01 -2.85938935e-01 2.95480308e-01
7.11305604e-01 -2.49248094e-01 -6.57205938e-01
-7.36965192e-01 -6.59356083e-01 -1.48767752e-01
-9.99344348e-01 -3.32111668e-02 -1.44184325e-02
-5.34437987e-02 -4.52852880e-01 -8.89981978e-01
-1.35354677e-01 9.49312518e-01 -2.83698468e-01
5.57042177e-01 8.14579558e-01 -1.61753325e-01
6.15128337e-01 2.46134088e-01 7.49022851e-01
8.60268137e-01 -4.92441504e-01 -1.32060899e-01
8.39930025e-02 -7.55356356e-01 -6.49909126e-01
-9.80443625e-01 1.47290515e-01 -1.30521213e-01
6.29123375e-01 -6.28900309e-01 -4.56823953e-01
2.37264886e-01 -1.60993553e-01 9.58011778e-01
-7.85707398e-02 7.29007122e-01 6.79981866e-01
-3.24320385e-01 8.91541106e-01 3.16181565e-01
3.28211077e-01 7.85009903e-01 -5.25392117e-01
8.70565599e-01 4.75361504e-01 -1.27070701e-01
-8.60268137e-01 4.92441504e-01 -1.32060899e-01
6.31630489e-01 -6.43759611e-01 4.31991367e-01
-1.68505800e-01 1.65791444e-01 -9.71657797e-01
1.08296254e-01 2.45165250e-02 9.93816373e-01
-6.97057605e-01 4.62722060e-01 5.47721697e-01
3.61911390e-01 -5.13168662e-01 7.78253278e-01
5.41585849e-01 -7.78689279e-01 -3.16745538e-01
-5.46928436e-01 -7.29659267e-01 4.10446939e-01
5.34437987e-02 4.52852880e-01 -8.89981978e-01
-7.65124551e-01 6.43881147e-01 1.22096844e-03
3.96108166e-01 1.56845482e-01 -9.04708630e-01
4.74213173e-02 -9.96715847e-01 -6.56409251e-02
-4.51703533e-01 -3.53808709e-01 -8.19013562e-01
-3.19219419e-01 -7.41013557e-02 9.44779375e-01
-9.43752353e-01 3.30570202e-01 -7.40524496e-03
-2.05592958e-01 -8.45385568e-01 4.93005920e-01
4.30725823e-01 9.02482418e-01 8.66339983e-04
-6.29123375e-01 6.28900309e-01 -4.56823953e-01
-3.67864875e-01 -8.60943077e-01 3.51358071e-01
5.12358155e-01 -5.92287638e-01 6.21839650e-01
5.27459367e-01 -7.96890336e-01 2.94537680e-01
-6.73238068e-01 -5.29411551e-01 -5.16211052e-01
3.21569628e-01 6.02721141e-01 7.30287813e-01
-1.86962493e-01 -2.51307317e-01 9.49678774e-01
-1.56472010e-01 3.85573322e-01 -9.09312714e-01
-7.11305604e-01 2.49248094e-01 -6.57205938e-01
-4.22960756e-01 7.56909539e-01 -4.98188808e-01
-5.41585849e-01 7.78689279e-01 -3.16745538e-01
8.09325992e-01 3.53795367e-01 4.68850012e-01
2.86319274e-01 9.44206760e-01 1.62772501e-01
2.90335345e-01 -6.86848988e-01 -6.66291058e-01
6.05625923e-01 1.92184666e-01 -7.72193112e-01
7.85707398e-02 -7.29007122e-01 6.79981866e-01
8.36276436e-01 -6.38778256e-02 -5.44574402e-01
9.17027026e-01 -3.20634275e-01 2.37181626e-01
7.98510371e-01 -4.69150371e-01 -3.77198980e-01
4.57285067e-01 -8.82667021e-01 -1.08578467e-01
-9.71864128e-01 -2.11939251e-01 1.02771020e-01
-3.05487208e-01 -6.53875597e-01 -6.92187970e-01
-7.92804436e-01 -5.12899054e-01 -3.29234940e-01
-8.33174576e-01 6.69364453e-02 5.48944173e-01
9.25974620e-01 -1.25081969e-01 3.56266119e-01
-8.36276436e-01 6.38778256e-02 -5.44574402e-01
3.78865531e-01 7.35543868e-01 5.61637069e-01
-1.26068869e-01 5.83983007e-01 -8.01916698e-01
2.05592958e-01 8.45385568e-01 4.93005920e-01
-8.70565599e-01 -4.75361504e-01 -1.27070701e-01
1.68505800e-01 -1.65791444e-01 -9.71657797e-01
4.51779424e-01 8.20924240e-01 -3.49254494e-01
-6.48222967e-01 -3.70658224e-01 -6.65146138e-01
8.59945691e-01 -4.95692517e-01 1.21582697e-01
-6.31630489e-01 6.43759611e-01 4.31991367e-01
9.04503189e-01 4.17664410e-01 8.61999579e-02
-3.28211077e-01 -7.85009903e-01 -5.25392117e-01
4.22960755e-01 -7.56909539e-01 -4.98188808e-01
1.35354677e-01 -9.49312518e-01 -2.83698468e-01
1.42681342e-01 -5.66247120e-01 8.11792051e-01
-7.14677263e-01 6.63010092e-01 2.22831900e-01
-9.00696552e-01 -3.09537619e-01 -3.04847742e-01
-3.44871124e-01 8.86537655e-01 -3.08406966e-01
3.08818051e-02 2.37659373e-01 -9.70857465e-01
1.56472010e-01 -3.85573322e-01 -9.09312714e-01
2.56944828e-01 4.39982502e-01 8.60462003e-01
5.38836033e-01 7.16190145e-02 8.39360798e-01
8.21498730e-01 4.98186227e-01 2.77399268e-01
1.90787029e-01 -9.73556305e-01 1.25652083e-01
7.74427292e-01 1.80687879e-01 6.06312076e-01
-8.93034677e-01 -1.12898175e-01 4.35595134e-01
3.67864875e-01 8.60943077e-01 3.51358070e-01
4.89820254e-01 5.27511198e-01 -6.94123887e-01
-2.00659874e-01 -7.41160104e-02 -9.76853271e-01
5.98970524e-01 -1.79230709e-01 7.80455482e-01
2.72628265e-01 4.92973030e-01 -8.26227160e-01
-7.02412139e-01 3.33178507e-02 -7.10990170e-01
8.86759573e-02 6.36694879e-01 -7.66000073e-01
-5.27459367e-01 7.96890336e-01 2.94537680e-01
7.33917334e-01 -2.47963911e-01 6.32360121e-01
-4.57285067e-01 8.82667021e-01 -1.08578467e-01
-3.29987215e-01 -9.23534116e-01 -1.95430679e-01
5.49232811e-01 -2.08360962e-01 -8.09276795e-01
-6.39779640e-01 -7.67833533e-01 3.33718737e-02
3.05487208e-01 6.53875597e-01 -6.92187970e-01
-4.34264865e-01 7.56291007e-01 4.89324023e-01
-6.96317285e-01 -5.60786636e-01 4.47951608e-01
6.39779640e-01 7.67833533e-01 3.33718736e-02
-8.68965490e-02 -9.68360219e-01 -2.33938982e-01
-1.24982420e-01 -9.39327657e-01 3.19441678e-01
