-4.73496123e-01 8.75013901e-01 1.00756734e-01
7.78261199e-01 -2.04407477e-01 5.93739046e-01
1.10937102e-01 4.38015448e-01 8.92095216e-01
-8.67932938e-01 -4.77242186e-01 -1.37595609e-01
-9.22966152e-01 -1.46469631e-01 -3.55922392e-01
-3.56686154e-01 9.30321391e-01 -8.53067764e-02
-9.73477769e-01 1.52370113e-02 2.28272795e-01
-1.93075949e-01 -9.66650171e-01 1.68252289e-01
6.68036577e-01 3.57608260e-01 -6.52567698e-01
8.35818615e-02 9.28867196e-01 3.60858942e-01
-9.42498329e-01 -3.33539260e-01 2.11760536e-02
-3.99119875e-01 -9.12195280e-01 9.27520046e-02
2.38644283e-01 -7.32574589e-01 -6.37482931e-01
-7.27548107e-01 7.96245885e-02 -6.81421208e-01
-8.20877393e-01 5.70834792e-01 1.75475139e-02
-2.33619985e-01 3.32427944e-01 -9.13736808e-01
-7.49833660e-01 5.74165827e-01 -3.28760792e-01
8.74354189e-01 -3.42980318e-01 -3.43321791e-01
-3.13962813e-01 -1.35923913e-01 9.39654408e-01
-1.10842934e-01 -2.38245151e-01 9.64858234e-01
5.82741112e-01 8.12598687e-01 9.80576578e-03
5.67129141e-01 -2.43098214e-01 -7.86936570e-01
9.00934072e-01 -9.05149066e-02 4.24410309e-01
-5.92235538e-02 6.61562355e-01 -7.47548743e-01
7.95666016e-01 1.80336569e-02 6.05466205e-01
-5.85065155e-01 7.42004794e-01 -3.27304475e-01
-4.37132963e-01 -7.70464898e-01 4.64001945e-01
2.98439964e-01 4.51887860e-01 -8.40673785e-01
-1.75580012e-01 -1.33917342e-01 -9.75315079e-01
9.42498329e-01 3.33539260e-01 2.11760534e-02
1.03383537e-01 -1.84853863e-01 9.77312229e-01
-2.46971445e-01 5.50388510e-01 -7.97545598e-01
-3.76116871e-01 8.67893390e-01 3.24494372e-01
-6.94632908e-01 -7.00384626e-01 1.64153017e-01
3.06984500e-01 -8.72864556e-02 9.47702454e-01
-9.38739805e-01 3.44625716e-01 -8.33915062e-04
8.79980098e-01 -4.37972971e-01 1.83886879e-01
-7.14767023e-01 -1.40720906e-01 -6.85059795e-01
-6.14228389e-01 3.20952320e-01 7.20910424e-01
-1.42285639e-01 7.16020092e-01 6.83424344e-01
-2.96910914e-01 3.11170529e-01 9.02781945e-01
4.73496123e-01 -8.75013901e-01 1.00756734e-01
-1.69963133e-01 -7.29108085e-01 -6.62959342e-01
-4.21589127e-01 -8.33552488e-01 -3.57006274e-01
-8.66610726e-01 4.69269311e-01 -1.69624465e-01
3.99119875e-01 9.12195280e-01 9.27520041e-02
3.52618019e-01 2.52841389e-01 -9.00962448e-01
7.47655763e-01 -4.44148593e-01 -4.93704109e-01
5.38495633e-01 5.95131304e-01 5.96523383e-01
2.05657526e-01 8.49033062e-01 -4.86671027e-01
5.40806831e-02 -9.80383352e-01 1.89534782e-01
-4.63517035e-01 7.37026188e-01 4.91877525e-01
-3.60485708e-01 6.47544960e-01 6.71367568e-01
-5.69675942e-01 7.73346890e-01 2.78214710e-01
-6.01291733e-02 4.62584900e-01 -8.84534472e-01
4.37132964e-01 7.70464899e-01 4.64001945e-01
-5.79164433e-01 4.64051437e-01 -6.70243232e-01
2.31811140e-01 5.75689844e-01 7.84119528e-01
-4.36911641e-01 4.38825534e-01 7.85199976e-01
-5.54078798e-01 -5.65912065e-01 -6.10525415e-01
5.24581337e-01 8.14798534e-01 2.46814386e-01
-7.65127903e-01 -2.46577477e-01 5.94792237e-01
-2.98439964e-01 -4.51887860e-01 -8.40673785e-01
-3.52618019e-01 -2.52841390e-01 -9.00962448e-01
5.51178276e-01 -5.46901702e-01 6.30158662e-01
-7.47655763e-01 4.44148592e-01 -4.93704109e-01
3.10300772e-01 3.54701448e-01 8.81985702e-01
2.71956969e-01 -9.51020620e-01 1.46965749e-01
1.07543293e-01 2.88427313e-02 9.93781066e-01
3.39185910e-01 6.88711109e-01 6.40803255e-01
9.33809866e-01 -8.55211837e-02 -3.47398715e-01
7.20256206e-01 -6.78268998e-01 -1.45541805e-01
7.87696285e-01 -4.93785532e-01 3.68388070e-01
-2.71956969e-01 9.51020620e-01 1.46965749e-01
5.79164432e-01 -4.64051438e-01 -6.70243232e-01
5.69675942e-01 -7.73346890e-01 2.78214710e-01
8.89402393e-01 4.02862082e-01 2.16021179e-01
1.75580012e-01 1.33917342e-01 -9.75315079e-01
-1.59125756e-01 9.17506223e-01 3.64500603e-01
-9.33809866e-01 8.55211836e-02 -3.47398715e-01
3.56686154e-01 -9.30321391e-01 -8.53067762e-02
8.31527059e-01 5.50962412e-01 7.07322223e-02
7.65127903e-01 2.46577477e-01 5.94792237e-01
-7.06509366e-01 -4.78861290e-01 5.21090658e-01
-7.10970588e-01 2.93547560e-01 -6.39024072e-01
8.14804301e-01 2.65355618e-01 -5.15442766e-01
5.85065155e-01 -7.42004795e-01 -3.27304475e-01
3.76116871e-01 -8.67893390e-01 3.24494372e-01
-1.55273891e-01 9.87046715e-01 -4.03592818e-02
-2.05657526e-01 -8.49033062e-01 -4.86671027e-01
-8.42015301e-01 1.96431506e-01 -5.02419915e-01
-8.61514826e-01 -3.81866694e-01 -3.34620105e-01
-5.90734173e-01 -6.82426157e-01 -4.30497882e-01
-9.00934072e-01 9.05149068e-02 4.24410309e-01
-8.43043934e-01 -3.40488920e-01 4.16345405e-01
4.36911641e-01 -4.38825533e-01 7.85199976e-01
4.16116870e-01 -4.10645360e-01 -8.11306694e-01
-4.95550644e-01 -2.21383173e-02 8.68296000e-01
-5.40806831e-02 9.80383352e-01 1.89534781e-01
1.69963133e-01 7.29108084e-01 -6.62959342e-01
-8.14804301e-01 -2.65355618e-01 -5.15442765e-01
7.50886490e-01 5.93071302e-01 -2.90579449e-01
9.86176082e-01 1.76620245e-02 -1.64757623e-01
4.94747066e-01 4.13019284e-01 -7.64618691e-01
7.27548107e-01 -7.96245889e-02 -6.81421208e-01
-4.35793667e-01 -4.86817405e-01 7.57027990e-01
-7.26313546e-01 -4.89557495e-01 -4.82496561e-01
-7.20256206e-01 6.78268998e-01 -1.45541805e-01
-7.16498099e-01 4.18529764e-01 5.58088111e-01
2.32807572e-01 9.28969795e-01 -2.87778136e-01
-1.58598438e-02 5.93009380e-01 8.05038470e-01
5.98067473e-01 -6.18912822e-01 -5.09178852e-01
8.61514826e-01 3.81866694e-01 -3.34620106e-01
-7.38400261e-01 6.39096474e-01 2.15221692e-01
-2.51323220e-01 -9.65299037e-01 -7.09544367e-02
5.92235536e-02 -6.61562355e-01 -7.47548743e-01
5.54078798e-01 5.65912065e-01 -6.10525416e-01
-3.10300772e-01 -3.54701448e-01 8.81985702e-01
-5.48354860e-01 -2.01434464e-01 -8.11623384e-01
-9.92846349e-01 1.17854458e-01 1.91420991e-02
-6.39521890e-01 6.29506622e-01 4.41284939e-01
7.14767023e-01 1.40720905e-01 -6.85059795e-01
5.45249764e-01 -8.28701079e-01 -1.26322747e-01
-2.10129000e-01 9.22597990e-02 -9.73311680e-01
6.20642986e-01 6.74909857e-01 3.99121880e-01
4.81714285e-01 -2.04148945e-01 8.52216564e-01
3.93726210e-01 -8.68235291e-01 -3.01906734e-01
6.53672923e-01 1.32577989e-01 7.45072808e-01
-2.63249491e-02 8.44244797e-01 5.35309993e-01
1.87321805e-01 -9.47648321e-01 -2.58599402e-01
2.60931351e-01 -8.09736632e-01 5.25585866e-01
2.30373394e-02 -8.09196372e-01 -5.87087331e-01
-4.81714284e-01 2.04148945e-01 8.52216565e-01
5.48625596e-03 9.14617691e-01 -4.04283421e-01
1.23967319e-01 5.71595172e-01 -8.11118040e-01
-4.21034385e-01 6.12724602e-01 -6.68804735e-01
4.95550644e-01 2.21383176e-02 8.68296000e-01
-4.20255771e-01 7.60749948e-01 -4.94616483e-01
3.22075666e-01 8.90459016e-01 3.21480086e-01
-9.73677159e-02 3.94083551e-01 9.13901577e-01
2.15158942e-01 -8.61999498e-01 -4.58981802e-01
-3.22075666e-01 -8.90459016e-01 3.21480087e-01
2.37415923e-01 -5.33435444e-01 8.11836740e-01
3.87416949e-01 4.07926553e-02 -9.21002535e-01
8.67932938e-01 4.77242186e-01 -1.37595609e-01
5.90734172e-01 6.82426157e-01 -4.30497882e-01
-8.31527059e-01 -5.50962412e-01 7.07322227e-02
6.94632908e-01 7.00384626e-01 1.64153017e-01
-6.02935887e-01 -7.64944845e-01 -2.26557044e-01
-7.71560856e-01 -5.52830418e-01 3.14756774e-01
-7.35927709e-01 -6.72513363e-01 -7.83346711e-02
-3.87416949e-01 -4.07926556e-02 -9.21002535e-01
9.93147605e-01 1.12782428e-01 3.06252454e-02
-4.92551042e-01 -2.51664671e-01 8.33100783e-01
3.13962813e-01 1.35923913e-01 9.39654408e-01
-1.07543293e-01 -2.88427309e-02 9.93781066e-01
-8.65009172e-01 2.98289962e-01 4.03461929e-01
1.58598440e-02 -5.93009380e-01 8.05038471e-01
4.24587600e-02 -2.29508641e-01 -9.72380959e-01
-9.53362235e-01 -2.48404834e-01 -1.71451990e-01
7.16498099e-01 -4.18529764e-01 5.58088111e-01
9.53362235e-01 2.48404834e-01 -1.71451990e-01
-8.79980098e-01 4.37972971e-01 1.83886879e-01
-9.51937718e-01 -1.98735398e-01 2.33063116e-01
9.73477769e-01 -1.52370112e-02 2.28272795e-01
-7.78261199e-01 2.04407478e-01 5.93739046e-01
2.96910914e-01 -3.11170528e-01 9.02781945e-01
-3.54157122e-01 -6.10605532e-01 -7.08332443e-01
6.39521890e-01 -6.29506621e-01 4.41284939e-01
1.03083924e-01 7.29662732e-01 6.75991735e-01
9.57892203e-01 -2.24372591e-01 -1.79164115e-01
-8.89402393e-01 -4.02862082e-01 2.16021179e-01
-8.35818614e-02 -9.28867196e-01 3.60858942e-01
-7.50886490e-01 -5.93071302e-01 -2.90579449e-01
5.43923573e-02 9.98503589e-01 5.66079655e-03
5.71200149e-01 -1.94074394e-02 -8.20582214e-01
-8.93205889e-01 -1.24836247e-01 4.31970369e-01
-7.95666016e-01 -1.80336566e-02 6.05466205e-01
4.20255771e-01 -7.60749948e-01 -4.94616483e-01
4.35793667e-01 4.86817405e-01 7.57027989e-01
1.10842934e-01 2.38245151e-01 9.64858234e-01
-2.32807572e-01 -9.28969795e-01 -2.87778135e-01
-5.82741112e-01 -8.12598687e-01 9.80576623e-03
4.21034385e-01 -6.12724602e-01 -6.68804735e-01
-6.20642986e-01 -6.74909856e-01 3.99121880e-01
8.66610726e-01 -4.69269311e-01 -1.69624465e-01
-2.30373396e-02 8.09196372e-01 -5.87087331e-01
9.92846349e-01 -1.17854458e-01 1.91420988e-02
-3.06984500e-01 8.72864560e-02 9.47702454e-01
7.26313546e-01 4.89557495e-01 -4.82496562e-01
-5.98067473e-01 6.18912822e-01 -5.09178852e-01
5.48354859e-01 2.01434463e-01 -8.11623384e-01
1.28386614e-01 3.51117707e-01 -9.27488462e-01
9.38739805e-01 -3.44625716e-01 -8.33915188e-04
8.42015301e-01 -1.96431506e-01 -5.02419915e-01
-8.47212677e-01 -3.46782354e-02 -5.30121706e-01
-5.24581337e-01 -8.14798533e-01 2.46814387e-01
2.63249491e-02 -8.44244796e-01 5.35309993e-01
6.14365337e-01 3.75048793e-01 6.94184721e-01
9.73677161e-02 -3.94083551e-01 9.13901577e-01
8.43043934e-01 3.40488920e-01 4.16345405e-01
7.35927709e-01 6.72513363e-01 -7.83346716e-02
3.54157122e-01 6.10605532e-01 -7.08332443e-01
3.60485708e-01 -6.47544959e-01 6.71367568e-01
-5.67129141e-01 2.43098214e-01 -7.86936570e-01
4.92551043e-01 2.51664671e-01 8.33100782e-01
8.20877393e-01 -5.70834792e-01 1.75475139e-02
-3.15245419e-02 -9.78236860e-01 -2.05083411e-01
-3.95036140e-01 -7.39090719e-01 -5.45611864e-01
-2.37415923e-01 5.33435444e-01 8.11836740e-01
-1.03083924e-01 -7.29662731e-01 6.75991735e-01
7.06509366e-01 4.78861290e-01 5.21090658e-01
-1.03383536e-01 1.84853864e-01 9.77312229e-01
2.10128999e-01 -9.22597994e-02 -9.73311680e-01
1.93075949e-01 9.66650171e-01 1.68252288e-01
7.49833660e-01 -5.74165827e-01 -3.28760792e-01
9.22966152e-01 1.46469631e-01 -3.55922392e-01
2.51323220e-01 9.65299037e-01 -7.09544372e-02
-9.93147605e-01 -1.12782428e-01 3.06252457e-02
-2.13532720e-01 -8.31582016e-01 5.12712625e-01
-9.86176082e-01 -1.76620246e-02 -1.64757623e-01
-7.87696285e-01 4.93785532e-01 3.68388070e-01
-5.51178276e-01 5.46901703e-01 6.30158662e-01
-5.48625608e-03 -9.14617691e-01 -4.04283421e-01
-2.38644283e-01 7.32574589e-01 -6.37482931e-01
-9.50114063e-01 2.30072122e-01 2.10593731e-01
1.42285639e-01 -7.16020092e-01 6.83424344e-01
-4.94747066e-01 -4.13019284e-01 -7.64618691e-01
-6.14365337e-01 -3.75048793e-01 6.94184722e-01
6.54919031e-01 -9.52651866e-02 7.49669462e-01
-5.38495633e-01 -5.95131304e-01 5.96523383e-01
-5.45249764e-01 8.28701079e-01 -1.26322747e-01
3.15245417e-02 9.78236860e-01 -2.05083411e-01
-1.28386614e-01 -3.51117707e-01 -9.27488462e-01
1.55273891e-01 -9.87046715e-01 -4.03592814e-02
-4.37170832e-01 -8.87890047e-01 -1.43294025e-01
-3.93726210e-01 8.68235291e-01 -3.01906734e-01
4.21589127e-01 8.33552488e-01 -3.57006274e-01
3.95036140e-01 7.39090719e-01 -5.45611865e-01
-5.43923574e-02 -9.98503589e-01 5.66079694e-03
6.54832213e-01 -7.53863868e-01 5.37023989e-02
7.10970588e-01 -2.93547560e-01 -6.39024072e-01
-1.10937102e-01 -4.38015448e-01 8.92095216e-01
3.97589565e-01 -1.83408655e-01 -8.99046922e-01
4.37170832e-01 8.87890047e-01 -1.43294025e-01
9.50114063e-01 -2.30072122e-01 2.10593731e-01
-5.71200149e-01 1.94074389e-02 -8.20582214e-01
-6.68036577e-01 -3.57608260e-01 -6.52567697e-01
-6.54832213e-01 7.53863868e-01 5.37023987e-02
8.65009172e-01 -2.98289962e-01 4.03461929e-01
-3.39185910e-01 -6.88711109e-01 6.40803255e-01
-1.23967319e-01 -5.71595173e-01 -8.11118040e-01
-6.53672923e-01 -1.32577989e-01 7.45072808e-01
8.93205889e-01 1.24836247e-01 4.31970369e-01
9.51937718e-01 1.98735398e-01 2.33063116e-01
6.02935887e-01 7.64944845e-01 -2.26557044e-01
-9.57892203e-01 2.24372591e-01 -1.79164115e-01
2.13532720e-01 8.31582016e-01 5.12712625e-01
-3.97589565e-01 1.83408655e-01 -8.99046922e-01
6.14228389e-01 -3.20952320e-01 7.20910424e-01
-2.60931351e-01 8.09736632e-01 5.25585866e-01
-2.15158942e-01 8.61999498e-01 -4.58981802e-01
7.71560856e-01 5.52830418e-01 3.14756774e-01
-8.74354189e-01 3.42980318e-01 -3.43321791e-01
1.59125756e-01 -9.17506223e-01 3.64500603e-01
4.63517035e-01 -7.37026188e-01 4.91877525e-01
-2.31811139e-01 -5.75689843e-01 7.84119528e-01
2.46971445e-01 -5.50388510e-01 -7.97545598e-01
-4.24587601e-02 2.29508641e-01 -9.72380959e-01
-6.62860419e-11 -1.78294520e-10 -1.00000087e+00
7.38400261e-01 -6.39096474e-01 2.15221692e-01
8.47212677e-01 3.46782352e-02 -5.30121706e-01
-6.54919031e-01 9.52651869e-02 7.49669462e-01
-1.87321805e-01 9.47648321e-01 -2.58599403e-01
2.33619985e-01 -3.32427944e-01 -9.13736808e-01
6.01291731e-02 -4.62584900e-01 -8.84534472e-01
-4.16116870e-01 4.10645360e-01 -8.11306694e-01
