-4.31283244e-01 2.61601602e-02 9.01835566e-01
8.72212885e-01 3.01673228e-01 -3.85018490e-01
-4.58470303e-01 -8.66165311e-01 1.98901905e-01
-2.61743265e-01 -9.42958747e-01 2.05714790e-01
2.04730263e-01 6.36585621e-01 -7.43536656e-01
-3.79947115e-01 6.20917572e-01 -6.85641200e-01
3.31202929e-01 -6.75282099e-01 6.59011759e-01
2.48542180e-01 7.77824805e-01 -5.77249765e-01
3.19671034e-01 -3.42229567e-01 -8.83567945e-01
-1.97721568e-01 5.37179909e-01 -8.19967484e-01
-1.41707484e-01 8.48033238e-01 -5.10646969e-01
4.51345221e-01 7.49441196e-01 -4.84383121e-01
9.95018988e-01 -9.90945127e-02 -1.08409648e-02
-9.02429870e-01 -1.97153981e-01 -3.83082134e-01
-5.17471788e-01 4.47108788e-01 7.29598681e-01
2.40952899e-01 -5.33009756e-01 -8.11076456e-01
-5.96863991e-01 1.05611033e-01 7.95359680e-01
-6.97363121e-01 6.04521901e-01 -3.85018490e-01
2.68621329e-01 2.73595849e-01 -9.23575112e-01
-7.97887131e-01 -1.73668561e-01 -5.77249765e-01
9.67068555e-01 -1.75087513e-01 1.84721827e-01
-6.94671885e-01 4.43874042e-01 5.66043206e-01
-8.73000428e-02 9.97522033e-02 9.91173486e-01
-8.10918850e-01 2.26666856e-01 5.39472842e-01
-3.64181576e-01 -8.41128356e-01 3.99841881e-01
8.75376180e-01 -4.72709434e-01 -1.01304855e-01
-9.59104181e-01 -1.59414963e-02 -2.82605707e-01
6.69611667e-01 2.64034299e-01 -6.94196247e-01
-2.60403634e-01 -7.90960495e-01 -5.53690615e-01
1.26593009e-01 9.60679971e-01 -2.47121493e-01
-7.50412917e-01 5.08108986e-02 6.59011759e-01
9.18521869e-01 7.32463910e-02 -3.88527790e-01
-9.21272044e-01 3.24629119e-01 2.14179919e-01
8.63366087e-01 -3.93638393e-01 -3.15672098e-01
3.59099696e-01 9.28551782e-01 9.40142660e-02
9.52522615e-01 -2.57816744e-01 -1.61962145e-01
1.97041389e-01 -8.14313957e-01 -5.45957233e-01
-9.06653681e-01 2.07655803e-01 -3.67232081e-01
-9.99150338e-01 5.69398129e-03 -4.08205410e-02
4.65746350e-01 8.38579334e-01 -2.82605707e-01
3.89893833e-01 4.64093862e-01 7.95359680e-01
-6.07329360e-01 -1.05942334e-01 7.87352927e-01
4.19209987e-01 6.24471200e-01 6.59011759e-01
-9.70827206e-01 1.67875453e-01 -1.71210230e-01
6.89303708e-01 -4.35732403e-01 5.78788157e-01
2.39043957e-02 -5.51581130e-01 -8.33780325e-01
-5.90936409e-01 -3.12160843e-01 7.43873158e-01
7.59747028e-02 2.41630773e-01 9.67387809e-01
6.88238648e-01 9.45911240e-03 7.25421021e-01
-1.28471675e-01 -6.71698109e-01 7.29598681e-01
8.05272070e-01 -3.01294338e-01 -5.10646969e-01
4.65731073e-01 2.96492379e-01 -8.33780325e-01
-2.59253746e-02 -8.36873535e-01 -5.46783681e-01
-7.43360741e-01 -6.02222285e-01 2.91105056e-01
4.11776952e-01 6.28107840e-01 -6.60244269e-01
-8.03737268e-01 2.36514130e-01 -5.45957233e-01
-1.74854257e-01 7.11759624e-01 -6.80313535e-01
2.65379864e-01 -9.63863155e-01 2.32651854e-02
-1.49859427e-01 9.44880428e-01 2.91105056e-01
4.48934188e-01 -4.95594419e-01 -7.43536656e-01
2.11915928e-01 5.78933821e-01 7.87352927e-01
7.19549475e-01 -6.51191941e-01 2.41240132e-01
-2.82089468e-01 1.85529261e-01 9.41276405e-01
-1.28828550e-01 -3.87357751e-01 -9.12885664e-01
1.24295062e-02 9.89057430e-01 1.47004810e-01
-6.02387158e-01 7.98194804e-01 -3.84441124e-03
1.30037964e-01 2.57279532e-02 9.91173486e-01
-3.87490463e-01 4.45049163e-01 -8.07332081e-01
-4.03275888e-11 3.34886684e-11 -1.00000168e+00
-9.83699280e-01 -1.53286432e-01 9.40142661e-02
4.94644037e-01 -8.68136566e-01 -4.08205411e-02
5.49344951e-01 -6.04156244e-01 -5.77249765e-01
9.78625254e-01 -1.91960270e-02 -2.04755492e-01
3.82775740e-01 -2.72954965e-01 8.82595809e-01
9.17988174e-01 -1.70836586e-01 -3.57929844e-01
-1.46534927e-01 1.53086921e-01 -9.77289714e-01
-3.95827699e-01 -8.32086468e-01 -3.88527790e-01
4.29474310e-01 7.56476733e-01 4.93247521e-01
-9.07821956e-02 9.44516160e-01 -3.15672098e-01
5.50667010e-01 -1.46531592e-01 8.21761269e-01
5.04506302e-01 8.62442585e-01 -4.08205411e-02
-2.29231089e-01 -2.72877429e-01 9.34338207e-01
2.05844626e-01 5.03595087e-02 -9.77289714e-01
-3.52311155e-01 5.91302597e-01 7.25421021e-01
-7.11791053e-01 4.40888800e-01 -5.46783681e-01
3.58598882e-02 7.64903240e-01 -6.43147927e-01
1.15858216e-01 -7.00222684e-01 -7.04462510e-01
1.66440846e-01 -1.68709856e-01 -9.71513090e-01
-6.80355582e-01 -3.51396046e-01 -6.43147927e-01
-9.70653698e-01 -1.89361479e-01 -1.48236724e-01
9.16425830e-01 -1.15418244e-01 3.83198438e-01
7.97470501e-01 1.68118961e-01 5.79460847e-01
3.73105246e-01 -1.34980876e-01 -9.17919231e-01
8.45031666e-01 5.34359006e-01 1.95415283e-02
-4.27773804e-01 -1.95016033e-01 8.82595809e-01
5.20698827e-01 -3.01992149e-01 -7.98546273e-01
7.68676755e-01 -5.89972747e-01 -2.47121493e-01
-9.37818895e-01 -3.47109575e-01 -3.26714529e-03
6.30798009e-01 7.56823296e-01 -1.71210230e-01
-6.62091118e-01 2.80324978e-01 6.95018654e-01
2.38296985e-01 3.60422165e-01 9.01835566e-01
4.93357831e-01 -8.22637837e-01 -2.82605708e-01
-5.83327860e-01 -8.12164465e-01 -1.08409647e-02
-8.69865223e-01 -6.30270358e-03 4.93247521e-01
-5.54790065e-01 6.20996410e-01 -5.53690615e-01
5.41776286e-01 -7.84051446e-01 3.02887391e-01
7.69515157e-01 -6.38620200e-01 -3.26714533e-03
8.68054746e-01 4.47400358e-01 2.15204919e-01
-6.06942911e-01 -7.09582786e-01 -3.57929844e-01
-5.38854462e-01 -5.10227485e-01 6.70299587e-01
-5.63466244e-01 4.47883565e-01 -6.94196247e-01
4.08120327e-01 8.61217749e-01 3.02887391e-01
5.34245889e-02 -9.26516266e-01 -3.72444185e-01
6.49318700e-01 -7.45930021e-01 -1.48236724e-01
1.68303738e-01 9.85729775e-01 -3.26714540e-03
-9.82659464e-01 8.57789758e-02 1.64383070e-01
-8.62798991e-01 -2.26372886e-01 4.52030645e-01
-6.56546643e-01 7.26909358e-01 -2.01370221e-01
-2.71047378e-01 3.05247673e-01 -9.12885664e-01
-6.99537158e-01 -6.96000411e-01 -1.61962145e-01
4.40390913e-01 -7.50174029e-01 4.93247522e-01
5.65807425e-01 -3.55685521e-01 7.43873158e-01
8.24186967e-01 -5.04263730e-02 5.64066605e-01
3.40029196e-01 -9.24698749e-01 -1.71210230e-01
-9.18990764e-01 1.61214764e-01 3.59811854e-01
-3.35927492e-01 -6.00761709e-01 7.25421021e-01
-4.65672969e-02 -9.75457641e-01 2.15204919e-01
8.89868018e-01 4.14689910e-01 -1.90178409e-01
-5.82076439e-01 5.78335461e-02 -8.11076456e-01
-6.53664451e-01 -1.40991201e-01 -7.43536656e-01
-2.52985458e-01 9.53817155e-01 -1.61962145e-01
3.74419508e-02 9.22150826e-01 3.85012551e-01
8.50334108e-01 -5.05292983e-01 1.47004809e-01
-8.58020121e-02 -9.77993264e-01 -1.90178408e-01
-9.10546394e-01 3.73827362e-01 -1.76519004e-01
-3.68422963e-01 7.38980037e-01 5.64066605e-01
3.21334997e-01 9.35291500e-01 -1.48236724e-01
-7.22007184e-01 -3.79088321e-01 5.78788158e-01
9.41785683e-01 3.36148662e-01 6.61686627e-03
-7.72583891e-01 -5.50877768e-01 -3.15672098e-01
-4.27379207e-02 -1.25480157e-01 9.91173486e-01
6.28865983e-02 2.28496929e-01 -9.71513090e-01
-6.85754597e-01 6.98155691e-01 2.05714790e-01
8.59421781e-01 3.17639676e-01 4.00621886e-01
-7.49845822e-01 4.25553814e-02 -6.60244269e-01
3.19879301e-01 -8.76476729e-01 3.59811854e-01
7.69018785e-02 -9.14007459e-01 3.98340471e-01
4.49980638e-02 4.67970998e-01 8.82595809e-01
-1.48433424e-01 5.50157415e-01 8.21761269e-01
-8.21487449e-01 5.28057282e-01 2.15204919e-01
8.22141997e-01 -2.82288131e-01 4.94362511e-01
-5.21882286e-01 -2.99942337e-01 -7.98546273e-01
5.13561667e-01 6.51055448e-02 8.55577475e-01
-2.00397778e-01 -4.77310222e-01 8.55577475e-01
-8.17327017e-01 -4.28649732e-01 3.85012551e-01
6.27444165e-01 -6.34019401e-01 4.52030645e-01
7.29679769e-01 -5.06048246e-01 -4.59874057e-01
1.36543982e-01 4.47958020e-01 -8.83567945e-01
-6.55539691e-01 -5.70851789e-01 4.94362511e-01
7.79885066e-01 -4.93501093e-01 3.85012551e-01
7.41773086e-01 6.35530434e-01 2.14179919e-01
5.79169112e-01 1.13052003e-01 -8.07332081e-01
6.24599584e-01 -7.75265350e-01 9.40142661e-02
-5.58168046e-01 -7.35938927e-01 3.83198438e-01
5.23900029e-01 -5.69166706e-01 6.33700164e-01
-6.96557555e-02 3.90609059e-01 -9.17919231e-01
-4.72688380e-01 8.57112344e-01 -2.04755492e-01
-3.66350664e-01 -4.39821855e-01 -8.19967484e-01
3.27034763e-02 8.14820724e-01 5.78788157e-01
-8.30004618e-01 3.90404749e-01 3.98340471e-01
-2.29327444e-01 -5.97870726e-02 -9.71513090e-01
8.93220168e-01 -3.42658144e-01 2.91105056e-01
-4.55764003e-01 -6.88553664e-01 5.64066605e-01
4.17042960e-01 -8.93897547e-01 1.64383070e-01
-1.54626861e-01 -9.03100933e-01 4.00621886e-01
-1.81387013e-01 9.82335652e-01 4.59919931e-02
-8.04066006e-01 5.63303354e-01 -1.90178408e-01
1.79498958e-01 -9.60159554e-01 2.14179919e-01
-4.65200460e-01 2.64897040e-01 8.44639130e-01
-2.83097114e-02 9.94452727e-01 -1.01304855e-01
-7.60034124e-01 -6.48253587e-01 4.59919932e-02
1.31529205e-01 -9.75469990e-01 -1.76519004e-01
-2.53139959e-01 -7.74689193e-01 5.79460847e-01
7.03829044e-01 -2.04451584e-01 -6.80313535e-01
-5.46347736e-01 7.35954674e-01 3.99841881e-01
-7.04794920e-01 5.85461257e-01 4.00621886e-01
2.51289847e-02 6.67846364e-01 7.43873158e-01
-7.54862840e-01 -1.69127381e-01 6.33700164e-01
-5.22694170e-01 7.58840077e-01 -3.88527790e-01
-8.95269764e-01 -3.70707223e-01 -2.47121493e-01
9.41421136e-01 -3.34082065e-01 4.59919931e-02
-8.47066469e-01 -5.21743293e-01 -1.01304855e-01
-3.01248648e-01 -9.32040750e-01 -2.01370221e-01
-3.47756834e-01 -6.39502640e-01 -6.85641200e-01
-3.70702544e-02 -8.23540521e-01 5.66043205e-01
7.02040046e-01 7.11757281e-01 2.32651854e-02
7.34107525e-02 8.84945340e-01 -4.59874057e-01
5.48481524e-01 4.50447500e-01 -7.04462510e-01
5.65616504e-01 8.08118572e-01 1.64383069e-01
2.35354826e-01 8.60392287e-01 4.52030645e-01
-1.66602306e-01 8.53139920e-01 4.94362511e-01
-4.11691129e-01 9.11258978e-01 -1.08409648e-02
-3.71251620e-01 9.58349706e-02 -9.23575112e-01
-6.35164512e-01 -7.49962180e-01 1.84721827e-01
3.99875928e-01 8.21100785e-02 -9.12885664e-01
9.92450556e-01 1.22585180e-01 -3.84441126e-03
-1.96283193e-02 -3.37061276e-01 9.41276405e-01
-6.64339740e-01 2.49775183e-01 -7.04462510e-01
-5.05936874e-01 -8.37916317e-01 -2.04755492e-01
2.09160169e-01 -8.15609753e-01 5.39472842e-01
-1.74849763e-01 -9.06195130e-01 -3.85018490e-01
-4.56215016e-01 -1.05728453e-01 -8.83567945e-01
5.99111463e-01 7.15261966e-01 3.59811854e-01
3.01717787e-01 1.51532015e-01 9.41276405e-01
-2.47245739e-01 -5.50193639e-02 9.67387809e-01
-4.02233586e-01 -4.03625823e-01 8.21761269e-01
-3.90063398e-01 -9.20779984e-01 -3.84441123e-03
-1.91678650e-01 -5.58101166e-01 -8.07332081e-01
-8.03090522e-01 -3.78897093e-01 -4.59874057e-01
9.57795291e-01 2.05131393e-01 -2.01370221e-01
6.44495693e-01 -4.13507194e-01 -6.43147927e-01
5.64072232e-01 -9.73580545e-02 -8.19967484e-01
4.02526410e-02 -9.98998392e-01 1.95415285e-02
-1.79779561e-01 -9.83684657e-01 6.61686640e-03
-8.85284307e-01 4.64639387e-01 1.95415284e-02
-3.31904043e-01 9.25049693e-01 1.84721827e-01
-3.58257783e-01 8.51357172e-01 3.83198438e-01
2.80474579e-01 8.80104183e-01 -3.83082134e-01
-8.74707725e-01 1.61558288e-02 -4.84383121e-01
-9.23723501e-01 -2.97552154e-01 2.41240132e-01
2.73491640e-01 -8.89013022e-01 -3.67232081e-01
2.30962812e-01 7.38294087e-01 6.33700164e-01
-5.20886012e-01 8.30129585e-01 1.98901905e-01
-6.63564585e-01 -5.46738901e-01 -5.10646969e-01
-1.06145423e-01 -7.11917864e-01 -6.94196247e-01
-7.62006122e-01 6.47535995e-01 6.61686640e-03
4.23362504e-01 -7.65597025e-01 -4.84383121e-01
-3.54640556e-01 7.67210055e-01 -5.34434840e-01
7.37716428e-01 3.95984734e-01 -5.46783682e-01
3.95413433e-01 -4.72991487e-01 7.87352927e-01
8.15193700e-01 1.69964085e-01 -5.53690615e-01
1.02630291e-01 -3.69430820e-01 -9.23575112e-01
7.27703949e-01 1.85850676e-02 -6.85641200e-01
8.82770065e-02 -7.13550217e-01 6.95018654e-01
-5.93096990e-02 -2.03446430e-01 -9.77289714e-01
1.92986259e-01 -3.86582325e-01 9.01835566e-01
2.06970158e-01 -5.69704895e-01 7.95359680e-01
-8.62763614e-01 -4.83764447e-01 1.47004810e-01
-4.89635469e-01 2.55088751e-01 -8.33780325e-01
6.01758681e-01 5.88942896e-01 5.39472842e-01
6.33162041e-01 6.81357218e-01 -3.67232081e-01
-5.44330542e-01 6.06570232e-01 5.79460847e-01
-5.28974788e-01 -5.07308040e-01 -6.80313535e-01
1.18345950e-03 6.01934486e-01 -7.98546273e-01
1.71271036e-01 -1.86611409e-01 9.67387809e-01
3.50934330e-01 -6.20812314e-02 9.34338207e-01
6.45943463e-01 2.24589320e-01 7.29598681e-01
-1.21703242e-01 3.34958661e-01 9.34338207e-01
8.41743676e-01 -7.64772968e-02 -5.34434840e-01
9.79356315e-01 3.60357265e-02 1.98901905e-01
-9.67419910e-01 2.52105873e-01 2.32651854e-02
7.53102740e-01 5.23602710e-01 3.98340471e-01
7.11297195e-01 -2.11547911e-01 6.70299586e-01
3.19266404e-03 -5.35323936e-01 8.44639130e-01
9.10529312e-01 1.05173682e-01 3.99841881e-01
-8.29098918e-01 4.16991082e-01 -3.72444185e-01
4.62007796e-01 2.70426896e-01 8.44639130e-01
7.31742139e-01 3.79666478e-01 5.66043205e-01
2.04174026e-01 9.48744095e-01 2.41240132e-01
-4.87103120e-01 -6.90732758e-01 -5.34434840e-01
-1.72442733e-01 7.21775396e-01 6.70299586e-01
-3.13163889e-01 4.12204678e-01 8.55577475e-01
7.75674329e-01 5.09525184e-01 -3.72444185e-01
6.06695879e-01 5.77799827e-01 -5.45957233e-01
7.79017189e-01 6.01642627e-01 -1.76519004e-01
5.73814112e-01 4.33225239e-01 6.95018654e-01
-3.11045263e-01 8.80419372e-01 -3.57929844e-01
3.38068870e-01 -6.70663221e-01 -6.60244269e-01
-9.49896613e-01 -7.71663034e-02 3.02887391e-01
3.41123540e-01 4.75176210e-01 -8.11076456e-01
-3.03449490e-01 -2.55628183e-01 -9.17919231e-01
9.47497863e-01 2.44803057e-01 2.05714790e-01
6.21955291e-01 -6.82950202e-01 -3.83082134e-01
