-7.65607707e-01 -5.87088378e-01 2.63005407e-01
6.70202812e-01 2.11055583e-01 -7.11536617e-01
-9.97773527e-01 5.47788064e-02 -3.80434525e-02
-3.70585230e-01 9.28355566e-01 2.86793535e-02
1.63144084e-01 2.72966062e-01 9.48088974e-01
1.87411118e-01 -9.76453703e-01 1.06841681e-01
6.80287837e-01 7.21846287e-01 1.27068033e-01
6.68120904e-01 -7.39518881e-01 8.20134811e-02
5.37801883e-01 -8.40823607e-01 -6.15211382e-02
9.72293057e-01 6.79934101e-02 -2.23658899e-01
9.33545482e-01 3.58458971e-01 7.28004648e-06
4.61663248e-01 -7.95903323e-01 3.91668996e-01
-3.27342854e-01 -9.02246411e-01 2.80709499e-01
-8.43880631e-01 -4.11002169e-01 -3.44881141e-01
-1.35852553e-01 5.12489966e-01 -8.47879039e-01
-6.63946055e-01 6.46388853e-01 -3.75975289e-01
5.01554494e-01 -7.14840364e-01 -4.87285103e-01
-2.04792595e-01 -9.71516348e-01 1.19230344e-01
-5.79570581e-02 1.78708602e-01 -9.82194013e-01
3.00110862e-01 4.13421258e-01 8.59660152e-01
-3.67837850e-01 -5.34341008e-01 -7.61035921e-01
3.82895446e-01 -7.16949013e-01 5.82558733e-01
4.33670980e-01 7.91332149e-01 4.30955372e-01
-3.98145961e-01 2.01618943e-02 9.17100041e-01
1.78183023e-01 -9.77864012e-01 -1.09694490e-01
-7.10042454e-01 -5.21094022e-01 -4.73604424e-01
-4.33670980e-01 -7.91332149e-01 4.30955372e-01
7.10042454e-01 5.21094022e-01 -4.73604424e-01
-5.37801883e-01 8.40823607e-01 -6.15211382e-02
-9.27511261e-01 -2.83731016e-02 3.72716381e-01
5.27615969e-01 -8.00735471e-01 -2.83627120e-01
-8.03977231e-01 -9.31091307e-02 -5.87325990e-01
7.87080768e-01 -5.80949242e-01 2.07368416e-01
-6.39396199e-01 5.28021813e-01 -5.58897091e-01
1.08588985e-01 3.12025306e-02 -9.93597357e-01
6.67289004e-02 7.84137688e-01 -6.16989371e-01
8.70652779e-01 -3.85793943e-01 3.05166354e-01
-3.78521767e-01 4.56023243e-01 8.05458481e-01
1.36703393e-01 -5.04522101e-01 8.52507409e-01
-7.27124059e-01 -6.81208748e-01 -8.51194458e-02
9.65032810e-01 -2.52851358e-01 -6.91225548e-02
-8.54272643e-01 -4.98033188e-01 -1.48933968e-01
4.21338920e-01 8.23466871e-01 -3.79968633e-01
1.61642126e-01 -9.34025256e-01 -3.18541872e-01
7.13402003e-01 -2.22227124e-01 6.64584157e-01
2.36358335e-01 9.21772296e-01 -3.07361095e-01
4.15258402e-01 8.93269700e-01 -1.72133245e-01
-8.70652779e-01 3.85793943e-01 3.05166355e-01
-3.65244323e-01 -1.98473524e-01 9.09507584e-01
5.67994532e-01 8.22644466e-01 -2.52649315e-02
5.81508197e-01 -1.15994111e-01 8.05228461e-01
3.63262724e-01 -9.12029156e-01 -1.90376413e-01
-1.78183023e-01 9.77864012e-01 -1.09694490e-01
-4.23416911e-01 2.31985757e-01 8.75728244e-01
3.94149652e-01 9.17725949e-01 4.92452173e-02
4.27630620e-02 -3.10439763e-01 9.49630264e-01
2.12482739e-01 -3.18298592e-01 -9.23871152e-01
7.29159288e-03 3.86669209e-01 -9.22190092e-01
4.95890024e-01 -5.54202955e-01 6.68544375e-01
-8.91337140e-01 4.41950093e-01 -1.00986669e-01
-6.55261538e-01 -4.04780438e-01 -6.37797518e-01
5.09916643e-01 -8.42209442e-01 1.75123156e-01
9.84994859e-01 -1.56757697e-02 1.71869852e-01
-5.82719974e-01 6.42498495e-01 4.97627047e-01
-4.27630619e-02 3.10439763e-01 9.49630264e-01
4.23416911e-01 -2.31985757e-01 8.75728244e-01
-2.36358335e-01 -9.21772296e-01 -3.07361094e-01
8.56717151e-01 -2.30152254e-01 -4.61590803e-01
1.06357703e-01 -7.11747373e-01 -6.94337330e-01
2.39303485e-01 8.28810187e-01 -5.05774615e-01
-6.81693240e-01 7.14934066e-01 -1.55446918e-01
9.63201199e-01 1.92979803e-01 1.87088430e-01
-7.13402003e-01 2.22227124e-01 6.64584158e-01
-1.93940807e-01 -4.69753855e-01 -8.61231116e-01
-3.63262724e-01 9.12029156e-01 -1.90376413e-01
6.40618634e-01 -7.06851906e-01 2.99946469e-01
3.98145962e-01 -2.01618942e-02 9.17100041e-01
-7.96649168e-01 6.04370534e-01 -9.29350166e-03
-8.38715490e-01 9.71762115e-02 5.35828927e-01
-4.21338920e-01 -8.23466871e-01 -3.79968633e-01
-5.81508197e-01 1.15994111e-01 8.05228461e-01
9.20427882e-01 -1.80186474e-01 3.46907832e-01
-8.96267702e-01 -3.96987344e-01 1.97750047e-01
4.89327305e-03 9.83558085e-01 1.80525321e-01
1.35852552e-01 -5.12489967e-01 -8.47879038e-01
-4.77750583e-01 4.41576750e-02 -8.77385464e-01
-5.14478654e-01 -8.31969004e-01 2.07699560e-01
-9.65032810e-01 2.52851358e-01 -6.91225547e-02
-3.00110862e-01 -4.13421258e-01 8.59660153e-01
2.04792595e-01 9.71516347e-01 1.19230344e-01
-3.94995861e-01 -7.13015846e-01 -5.79298872e-01
-1.25782549e-02 8.64169697e-01 5.03042821e-01
8.54272643e-01 4.98033188e-01 -1.48933968e-01
3.26387512e-01 7.08818080e-01 6.25337966e-01
-1.61642126e-01 9.34025256e-01 -3.18541873e-01
-9.63201199e-01 -1.92979803e-01 1.87088430e-01
9.37892582e-01 2.84386931e-01 -1.98700160e-01
6.54045132e-01 1.00698099e-02 -7.56388941e-01
-1.36703393e-01 5.04522101e-01 8.52507409e-01
5.82719974e-01 -6.42498495e-01 4.97627047e-01
5.14478654e-01 8.31969004e-01 2.07699560e-01
-6.68120904e-01 7.39518881e-01 8.20134811e-02
-7.74691648e-01 1.13669183e-01 -6.22039158e-01
3.25399948e-02 9.72654297e-01 -2.29967324e-01
-1.16214892e-02 1.04159626e-01 9.94492252e-01
1.25782549e-02 -8.64169697e-01 5.03042822e-01
4.62727738e-02 9.02541979e-01 -4.28108845e-01
5.61162651e-01 -3.45206765e-01 7.52281933e-01
7.27124059e-01 6.81208748e-01 -8.51194459e-02
-7.84081376e-01 4.43647720e-01 -4.34043175e-01
-2.25505916e-01 -6.73999443e-01 -7.03471714e-01
-4.28111190e-01 2.47890791e-01 -8.69063708e-01
-1.43248414e-01 7.60567264e-01 6.33258850e-01
-1.53909153e-01 -2.42563501e-01 -9.57849551e-01
3.94995860e-01 7.13015846e-01 -5.79298873e-01
-3.94149652e-01 -9.17725949e-01 4.92452174e-02
3.26844320e-01 -9.08180592e-01 2.61496791e-01
-6.70202812e-01 -2.11055583e-01 -7.11536617e-01
-5.04597284e-01 -1.66421397e-01 -8.47163647e-01
6.69382005e-01 2.20945674e-01 7.09302557e-01
8.18093936e-01 4.26124206e-01 3.86186656e-01
2.80256872e-01 -6.12389243e-01 -7.39213197e-01
8.96267702e-01 3.96987344e-01 1.97750047e-01
-7.29159291e-03 -3.86669209e-01 -9.22190092e-01
6.81693240e-01 -7.14934066e-01 -1.55446918e-01
-6.14936771e-01 1.96712795e-01 -7.63647508e-01
8.22318867e-01 1.20966786e-01 5.56019990e-01
-4.20981500e-01 -5.34206309e-01 7.33074043e-01
3.61628578e-01 -4.39250361e-01 -8.22365257e-01
-2.45443633e-01 3.37260241e-01 9.08852108e-01
-7.95845942e-01 -3.00650292e-01 -5.25584533e-01
6.04664169e-01 4.44512007e-01 6.60900701e-01
-2.09601579e-01 -6.02790906e-01 7.69876370e-01
-2.39303485e-01 -8.28810187e-01 -5.05774615e-01
9.02045603e-01 1.84753876e-01 -3.90102651e-01
8.93534668e-01 2.32794622e-01 3.83929842e-01
-5.67994532e-01 -8.22644466e-01 -2.52649313e-02
-9.20427882e-01 1.80186474e-01 3.46907832e-01
-9.00354659e-01 2.45899285e-02 -4.34461973e-01
-3.82895446e-01 7.16949014e-01 5.82558733e-01
-7.43622495e-01 5.26689621e-01 4.11853451e-01
8.09879215e-01 -3.14526169e-01 4.95144940e-01
2.24497848e-01 9.69530507e-01 -9.80377381e-02
8.43880631e-01 4.11002169e-01 -3.44881141e-01
-4.62727739e-02 -9.02541979e-01 -4.28108845e-01
-7.95612320e-01 5.53312853e-01 -2.46670103e-01
-5.49578959e-01 -1.01501687e-01 8.29252462e-01
-3.26844320e-01 9.08180592e-01 2.61496791e-01
7.84081376e-01 -4.43647720e-01 -4.34043175e-01
3.27342854e-01 9.02246411e-01 2.80709499e-01
9.00093560e-01 -4.22936170e-01 1.04673243e-01
2.45443633e-01 -3.37260241e-01 9.08852108e-01
-7.87080768e-01 5.80949242e-01 2.07368416e-01
-9.88192548e-01 -1.52202763e-01 -1.76017550e-02
-2.20417003e-01 1.39686127e-01 9.65351377e-01
-7.34091266e-01 -6.14909839e-01 -2.88090535e-01
9.56150633e-01 -1.37637580e-01 -2.58519034e-01
-4.89327308e-03 -9.83558085e-01 1.80525321e-01
-6.81986734e-01 -5.47205090e-01 4.85242473e-01
1.53909153e-01 2.42563501e-01 -9.57849551e-01
-6.11803513e-01 -7.07107409e-01 3.54535275e-01
6.14936770e-01 -1.96712795e-01 -7.63647508e-01
2.56537745e-01 -8.43666605e-01 4.71608556e-01
-4.90659633e-02 -6.04517958e-01 -7.95079410e-01
5.17599741e-01 6.41710925e-01 5.65947964e-01
5.04597284e-01 1.66421397e-01 -8.47163647e-01
1.16214892e-02 -1.04159626e-01 9.94492252e-01
3.65244324e-01 1.98473524e-01 9.09507583e-01
-8.22318866e-01 -1.20966786e-01 5.56019990e-01
-2.24497848e-01 -9.69530507e-01 -9.80377379e-02
8.29144323e-01 5.55961203e-01 5.85387105e-02
-8.93534668e-01 -2.32794622e-01 3.83929842e-01
-6.54045132e-01 -1.00698099e-02 -7.56388941e-01
-3.42875513e-01 8.51630964e-01 -3.96435912e-01
6.55261538e-01 4.04780438e-01 -6.37797519e-01
7.43622495e-01 -5.26689621e-01 4.11853451e-01
5.79570580e-02 -1.78708602e-01 -9.82194013e-01
-8.29144323e-01 -5.55961203e-01 5.85387107e-02
6.69528827e-01 -4.44351876e-01 5.95215959e-01
1.43248414e-01 -7.60567264e-01 6.33258851e-01
5.53465745e-01 -3.97981901e-01 -7.31632913e-01
-5.05467279e-01 -3.73883672e-01 -7.77633920e-01
1.93940807e-01 4.69753855e-01 -8.61231117e-01
-9.02045603e-01 -1.84753876e-01 -3.90102651e-01
-9.72293058e-01 -6.79934103e-02 -2.23658899e-01
7.59810195e-01 3.29904931e-01 5.60223805e-01
-9.37892582e-01 -2.84386931e-01 -1.98700160e-01
-5.01554494e-01 7.14840364e-01 -4.87285103e-01
8.38715490e-01 -9.71762114e-02 5.35828927e-01
-1.96851495e-01 -6.58517637e-02 9.78218878e-01
1.96851495e-01 6.58517637e-02 9.78218878e-01
9.97773527e-01 -5.47788064e-02 -3.80434526e-02
8.91337140e-01 -4.41950093e-01 -1.00986669e-01
4.90659632e-02 6.04517958e-01 -7.95079410e-01
7.74691648e-01 -1.13669183e-01 -6.22039158e-01
-1.72631330e-02 6.45331332e-01 7.63707264e-01
6.11803513e-01 7.07107409e-01 3.54535274e-01
8.03977231e-01 9.31091306e-02 -5.87325990e-01
5.88320439e-01 7.72611523e-01 -2.38643470e-01
-2.31299213e-01 -8.41466834e-01 4.88296848e-01
-5.27615969e-01 8.00735471e-01 -2.83627120e-01
4.69577693e-01 -5.85849263e-01 -6.60513446e-01
9.64118264e-01 -2.23162143e-01 1.43786317e-01
-6.04664169e-01 -4.44512007e-01 6.60900701e-01
-2.80256872e-01 6.12389243e-01 -7.39213197e-01
-5.53465745e-01 3.97981901e-01 -7.31632913e-01
6.81986734e-01 5.47205090e-01 4.85242473e-01
-1.25337413e-01 9.33427367e-01 3.36160063e-01
-8.18093936e-01 -4.26124206e-01 3.86186656e-01
-9.56150633e-01 1.37637580e-01 -2.58519034e-01
2.09601579e-01 6.02790906e-01 7.69876370e-01
-9.84994859e-01 1.56757698e-02 1.71869852e-01
-5.31865962e-01 -5.69791816e-01 -6.26463435e-01
-4.61663248e-01 7.95903323e-01 3.91668996e-01
-1.05800158e-01 -7.58498881e-01 6.43028155e-01
-6.69382005e-01 -2.20945674e-01 7.09302557e-01
1.25337413e-01 -9.33427367e-01 3.36160064e-01
2.73910109e-01 -1.12598294e-01 -9.55141726e-01
5.31865962e-01 5.69791816e-01 -6.26463435e-01
-3.13078054e-01 7.50154651e-01 -5.82452268e-01
-5.88320439e-01 -7.72611523e-01 -2.38643470e-01
-9.33545482e-01 -3.58458971e-01 7.28023207e-06
-1.87411118e-01 9.76453703e-01 1.06841681e-01
2.20417003e-01 -1.39686127e-01 9.65351377e-01
5.49578959e-01 1.01501687e-01 8.29252462e-01
-9.64118264e-01 2.23162143e-01 1.43786317e-01
-6.40618634e-01 7.06851906e-01 2.99946469e-01
-5.09916643e-01 8.42209442e-01 1.75123156e-01
-1.18884046e-01 -9.31634031e-01 3.43401097e-01
1.87592519e-02 9.99488788e-01 -2.58896733e-02
1.72631331e-02 -6.45331332e-01 7.63707264e-01
3.70585230e-01 -9.28355566e-01 2.86793535e-02
-5.17599741e-01 -6.41710925e-01 5.65947965e-01
-5.76237047e-01 -6.87697342e-01 -4.41614786e-01
2.67345933e-01 -6.24440479e-01 7.33893449e-01
-6.67289005e-02 -7.84137688e-01 -6.16989371e-01
-1.63144084e-01 -2.72966062e-01 9.48088974e-01
7.34091266e-01 6.14909839e-01 -2.88090535e-01
1.05800158e-01 7.58498881e-01 6.43028155e-01
-1.36614674e-01 8.45432543e-01 -5.16314536e-01
1.18884046e-01 9.31634031e-01 3.43401097e-01
3.78521767e-01 -4.56023243e-01 8.05458481e-01
-8.56717151e-01 2.30152254e-01 -4.61590803e-01
-8.30596281e-02 -4.73153742e-01 8.77055222e-01
-9.00093560e-01 4.22936170e-01 1.04673243e-01
3.67837850e-01 5.34341008e-01 -7.61035921e-01
7.95612320e-01 -5.53312853e-01 -2.46670103e-01
2.31299213e-01 8.41466834e-01 4.88296848e-01
-8.97180897e-01 3.38425960e-01 -2.83786111e-01
-5.61162651e-01 3.45206765e-01 7.52281933e-01
-3.26387512e-01 -7.08818080e-01 6.25337966e-01
-4.15258402e-01 -8.93269700e-01 -1.72133245e-01
9.27511261e-01 2.83731017e-02 3.72716381e-01
-4.95890024e-01 5.54202955e-01 6.68544375e-01
-2.73910109e-01 1.12598294e-01 -9.55141726e-01
7.65607707e-01 5.87088378e-01 2.63005407e-01
-4.69577693e-01 5.85849263e-01 -6.60513446e-01
8.30596282e-02 4.73153742e-01 8.77055222e-01
-7.20964239e-01 3.25454729e-01 -6.11792713e-01
-3.25399949e-02 -9.72654297e-01 -2.29967324e-01
7.20964239e-01 -3.25454729e-01 -6.11792713e-01
-6.80287837e-01 -7.21846287e-01 1.27068033e-01
-7.16854470e-01 -3.70985115e-03 6.97212516e-01
8.97180897e-01 -3.38425960e-01 -2.83786111e-01
-2.67345933e-01 6.24440479e-01 7.33893449e-01
-7.59810195e-01 -3.29904931e-01 5.60223805e-01
-6.69528826e-01 4.44351876e-01 5.95215959e-01
9.88192548e-01 1.52202763e-01 -1.76017552e-02
-1.08588986e-01 -3.12025307e-02 -9.93597357e-01
5.05467279e-01 3.73883672e-01 -7.77633920e-01
4.97840657e-01 3.27067764e-01 8.03231381e-01
4.77750583e-01 -4.41576751e-02 -8.77385464e-01
7.16854471e-01 3.70985117e-03 6.97212516e-01
7.95845942e-01 3.00650292e-01 -5.25584533e-01
9.00354659e-01 -2.45899286e-02 -4.34461973e-01
6.63946054e-01 -6.46388853e-01 -3.75975289e-01
7.96649168e-01 -6.04370534e-01 -9.29350166e-03
-4.97840657e-01 -3.27067764e-01 8.03231381e-01
6.39396199e-01 -5.28021813e-01 -5.58897091e-01
5.76237047e-01 6.87697342e-01 -4.41614786e-01
3.18459050e-01 9.85950162e-02 -9.42795675e-01
3.13078054e-01 -7.50154651e-01 -5.82452268e-01
3.38051895e-01 3.16762614e-01 -8.86218451e-01
3.42875513e-01 -8.51630964e-01 -3.96435912e-01
-8.09879215e-01 3.14526169e-01 4.95144940e-01
4.20981500e-01 5.34206309e-01 7.33074042e-01
4.28111190e-01 -2.47890792e-01 -8.69063708e-01
-3.38051895e-01 -3.16762614e-01 -8.86218451e-01
-2.12482739e-01 3.18298592e-01 -9.23871152e-01
2.25505915e-01 6.73999442e-01 -7.03471714e-01
-1.06357703e-01 7.11747373e-01 -6.94337330e-01
-2.56537745e-01 8.43666605e-01 4.71608556e-01
-3.18459050e-01 -9.85950163e-02 -9.42795675e-01
-1.87592519e-02 -9.99488788e-01 -2.58896732e-02
-3.61628578e-01 4.39250361e-01 -8.22365257e-01
1.36614674e-01 -8.45432543e-01 -5.16314536e-01
