7.51432559e-01 -6.51256262e-01 1.05899756e-01
-1.89337964e-01 2.29459952e-01 9.54726464e-01
-6.31048389e-01 6.14776174e-01 4.73106597e-01
-7.09968299e-01 6.98182195e-01 -9.21212116e-02
-3.17278453e-01 -9.48332132e-01 7.43385327e-04
-9.74542768e-01 2.10166103e-02 2.23216225e-01
5.36589139e-01 1.95767898e-02 8.43618282e-01
-1.71265075e-01 2.42887499e-01 -9.54814424e-01
-9.91532933e-01 -1.13692347e-01 6.27432505e-02
2.15728805e-01 2.83716645e-01 -9.34324711e-01
5.93138760e-01 2.01626152e-01 -7.79442472e-01
-8.97075292e-01 2.70222250e-01 -3.49620695e-01
-1.81395762e-01 6.45347230e-01 -7.42037686e-01
-2.49561629e-01 -7.42161956e-01 6.22026373e-01
8.27481186e-01 2.84607129e-01 -4.84016495e-01
6.51700948e-01 -4.36292923e-01 6.20432539e-01
-1.52709923e-01 -4.65550750e-01 -8.71744868e-01
6.31050653e-01 -6.14773706e-01 4.73106776e-01
8.69612457e-01 -1.18127944e-01 -4.79393655e-01
7.98572618e-01 1.29529081e-01 5.87797629e-01
7.09967443e-01 -6.98183144e-01 -9.21205731e-02
-6.60210800e-01 -1.74781645e-01 7.30462623e-01
4.14760470e-03 5.45700405e-01 8.37971843e-01
5.09525607e-02 1.62893483e-01 -9.85325372e-01
-5.04892976e-01 1.78072306e-01 -8.44612557e-01
-4.64011812e-01 -4.35589145e-02 -8.84755646e-01
-6.62453107e-01 4.41819822e-01 -6.04937191e-01
-3.75492128e-02 -7.22002586e-01 -6.90868941e-01
1.81392262e-01 -6.45352415e-01 -7.42034029e-01
9.33906730e-01 1.75700479e-01 -3.11362272e-01
-8.66936963e-01 -8.50416692e-02 -4.91107417e-01
7.79173590e-02 8.41296545e-01 5.34930733e-01
-3.05400664e-01 -9.23118704e-01 2.33630288e-01
-1.90667974e-01 4.54834264e-01 -8.69924400e-01
-5.38502236e-01 1.90861162e-01 8.20725437e-01
3.75458220e-02 7.21997793e-01 -6.90874137e-01
-1.45666814e-01 -9.81656801e-01 1.23010300e-01
2.63414328e-01 -9.21523559e-01 2.85321261e-01
-6.86055221e-01 2.40598656e-01 6.86617022e-01
1.56382405e-01 2.06363418e-01 9.65899620e-01
5.15042933e-01 -3.93386479e-01 7.61564526e-01
-4.83035412e-01 -8.11363199e-01 -3.29188995e-01
6.19299589e-01 -7.29548250e-01 -2.90217759e-01
9.90335651e-01 4.27787646e-02 -1.31927290e-01
-9.43635736e-01 3.30681628e-01 -1.41849213e-02
-3.22937422e-01 -2.94938165e-01 8.99291977e-01
-4.43809377e-01 8.45524976e-01 -2.96849646e-01
-6.92461715e-01 3.63467665e-02 7.20540227e-01
-2.62080114e-01 -7.48629018e-01 -6.08988068e-01
-7.93588917e-01 4.44897167e-01 -4.15068293e-01
7.70374560e-01 -5.82163569e-01 -2.60014805e-01
-6.41019953e-01 -7.36833008e-01 -2.14871549e-01
4.45126130e-01 7.29463752e-01 5.19371916e-01
8.99079474e-02 8.42671325e-01 -5.30866967e-01
6.91173944e-01 3.49102438e-01 -6.32774718e-01
-6.51697404e-01 4.36295643e-01 6.20434354e-01
-5.15038228e-01 3.93391256e-01 7.61565244e-01
-7.63370838e-01 4.58891568e-01 4.54626323e-01
-3.14024221e-01 -9.21198390e-01 -2.29742262e-01
-9.45491913e-01 -1.95883309e-01 2.60145514e-01
-6.12476085e-01 -7.57203531e-01 2.26972806e-01
-8.88745764e-01 4.09688384e-01 -2.05634816e-01
-1.56376738e-01 -2.06356484e-01 9.65902019e-01
-3.78086183e-01 9.20058758e-01 -1.02676007e-01
6.22469487e-01 7.82605679e-01 -7.74994947e-03
-7.44919737e-01 -1.44602358e-01 -6.51292912e-01
-8.27483516e-01 -2.84610070e-01 -4.84010786e-01
-6.17489405e-01 -6.66712852e-01 4.17375458e-01
6.57261015e-01 -5.99538523e-01 -4.56683600e-01
-2.46515123e-01 9.23095362e-01 -2.95168111e-01
8.43174958e-01 -5.35216734e-01 -5.09789672e-02
-7.98569561e-01 -1.29525656e-01 5.87802541e-01
1.52217515e-02 -5.66966885e-01 -8.23598176e-01
7.41934142e-01 6.62038452e-01 1.06015035e-01
-9.07680862e-01 -6.07803094e-02 4.15238085e-01
4.18587277e-01 6.07274994e-01 6.75280790e-01
1.12104721e-01 -4.02545146e-02 -9.92878954e-01
-4.14312526e-03 -5.45694366e-01 8.37975796e-01
5.98723712e-01 5.48903841e-01 5.83297984e-01
-8.75211685e-01 -3.78151917e-01 -3.01669647e-01
9.67302103e-01 -1.91079285e-01 -1.66777574e-01
4.43807503e-01 -8.45527195e-01 -2.96846117e-01
2.31011762e-01 -9.68626184e-01 9.16362326e-02
-7.41933811e-01 -6.62037576e-01 1.06022837e-01
-3.22851921e-01 7.01497684e-01 6.35350196e-01
-4.92619557e-01 7.31386124e-01 -4.71591620e-01
4.37464795e-02 7.10327270e-01 7.02512551e-01
3.77047962e-01 4.61599996e-01 8.02971418e-01
-8.78080280e-01 4.57737472e-01 1.39470147e-01
2.88355289e-01 -8.34492211e-01 4.69548318e-01
4.11890533e-01 5.96680520e-01 -6.88706125e-01
-6.27259088e-01 1.26552541e-02 -7.78706073e-01
-1.52256383e-02 5.66961110e-01 -8.23602082e-01
9.94311157e-01 -1.04403919e-01 2.11001233e-02
1.80362388e-01 -4.46487136e-01 8.76425538e-01
-6.24752886e-01 7.23485186e-01 2.93690401e-01
9.45426386e-01 3.15671091e-01 8.07526572e-02
-1.48928249e-01 -9.82082299e-01 -1.15474355e-01
3.22942645e-01 2.94944800e-01 8.99287925e-01
3.45619317e-01 -5.28973625e-01 7.75072198e-01
-6.28907213e-01 -6.59584558e-01 -4.11609625e-01
1.90663946e-01 -4.54840396e-01 -8.69922075e-01
-2.63413798e-01 9.21525362e-01 2.85315937e-01
7.44722107e-01 4.77540503e-01 -4.66199970e-01
3.05401265e-01 9.23120569e-01 2.33622141e-01
-8.69614489e-01 1.18125119e-01 -4.79390672e-01
-5.59585087e-01 -4.05203831e-01 7.22963987e-01
8.90154447e-02 -9.03602225e-01 4.19023553e-01
3.27203603e-01 -1.13467247e-01 -9.38114966e-01
8.97073741e-01 -2.70224444e-01 -3.49622971e-01
-7.44724454e-01 -4.77543400e-01 -4.66193257e-01
-4.15560219e-01 -2.50057690e-01 -8.74515743e-01
6.60214797e-01 1.74785889e-01 7.30457992e-01
-6.19301341e-01 7.29546165e-01 -2.90219273e-01
7.61144898e-01 5.79599861e-01 2.91072959e-01
-3.03693964e-01 -8.48013341e-01 -4.34329165e-01
3.17278093e-01 9.48332260e-01 7.35209823e-04
-4.78265693e-01 -8.70003471e-01 -1.19814302e-01
4.25472469e-01 -8.99428520e-01 1.00009318e-01
-4.54718338e-01 8.40232244e-01 2.95367652e-01
2.46513297e-01 -9.23097537e-01 -2.95162824e-01
4.54719007e-01 -8.40230623e-01 2.95371223e-01
8.78080791e-01 -4.57736986e-01 1.39468497e-01
-7.63050689e-01 6.74773564e-02 -6.42804944e-01
-6.22469685e-01 -7.82605603e-01 -7.74167119e-03
8.78099691e-01 -3.55322873e-01 3.20449231e-01
-9.59897103e-01 -2.53419145e-01 -1.19899413e-01
-9.90336281e-01 -4.27791494e-02 -1.31922454e-01
8.61268639e-01 4.99304532e-01 9.44015134e-02
5.99628682e-01 -7.93990122e-01 1.00127309e-01
-9.67302865e-01 1.91078255e-01 -1.66774357e-01
6.86058832e-01 -2.40595266e-01 6.86614597e-01
-1.32878025e-01 7.92198973e-01 -5.95619113e-01
7.93586983e-01 -4.44899849e-01 -4.15069106e-01
4.64007789e-01 4.35527671e-02 -8.84758057e-01
-5.71130156e-02 9.73986434e-01 2.19292734e-01
2.12852355e-01 6.00538238e-01 7.70746656e-01
6.92465517e-01 -3.63428839e-02 7.20536766e-01
-5.98721031e-01 -5.48899613e-01 5.83304716e-01
3.60544273e-01 9.19293850e-02 9.28202604e-01
-7.61143746e-01 -5.79597730e-01 2.91080216e-01
-3.49381138e-01 -4.45551676e-01 -8.24265509e-01
9.91533174e-01 1.13693162e-01 6.27379309e-02
3.57849976e-01 -3.27824904e-01 8.74343923e-01
8.07972870e-01 -2.72847804e-01 5.22241082e-01
5.53554126e-01 -8.26572223e-01 -1.01763593e-01
-3.56667871e-01 3.26955543e-01 -8.75148576e-01
-1.12320177e-01 -9.34460531e-01 3.37888856e-01
7.75312470e-01 5.64787535e-01 -2.82674053e-01
9.55961893e-01 -2.36102401e-01 1.74336236e-01
1.71260680e-01 -2.42894228e-01 -9.54813499e-01
-4.98752036e-01 5.84822645e-01 6.39711756e-01
4.92617078e-01 -7.31389393e-01 -4.71589133e-01
8.88744717e-01 -4.09689857e-01 -2.05636386e-01
3.22854724e-01 -7.01493420e-01 6.35353475e-01
3.49377247e-01 4.45545966e-01 -8.24270245e-01
-4.73831180e-01 -8.73364443e-01 1.12778356e-01
-3.60539006e-01 -9.19226479e-02 9.28205318e-01
-9.49570699e-01 3.86257840e-02 -3.11163054e-01
-5.91006705e-01 -5.47719783e-01 -5.92209451e-01
8.14593262e-02 -9.01249626e-01 -4.25572548e-01
2.62077027e-01 7.48624849e-01 -6.08994523e-01
7.63373572e-01 -4.58889101e-01 4.54624214e-01
-8.52092422e-01 -2.74047693e-01 4.45912474e-01
8.52094471e-01 2.74050679e-01 4.45906719e-01
-7.70375994e-01 5.82161725e-01 -2.60014700e-01
9.49569343e-01 -3.86275736e-02 -3.11166960e-01
-2.74745143e-02 9.72501842e-01 -2.31267180e-01
9.43635605e-01 -3.30681886e-01 -1.41873911e-02
-3.70434035e-01 1.19157212e-01 9.21185878e-01
-6.57263285e-01 5.99535544e-01 -4.56684251e-01
-3.57844590e-01 3.27830847e-01 8.74343902e-01
1.93254460e-02 -9.99778981e-01 8.27902623e-03
2.49564276e-01 7.42166702e-01 6.22019650e-01
-6.56365786e-01 2.36932580e-01 -7.16271174e-01
7.81671634e-01 -2.85998898e-01 -5.54249166e-01
6.12476900e-01 7.57205295e-01 2.26964721e-01
7.17509548e-01 3.37535713e-01 6.09304382e-01
-5.99628903e-01 7.93990208e-01 1.00125338e-01
1.34022800e-01 9.29387318e-01 -3.43912629e-01
-4.59813769e-01 -7.18010626e-01 -5.22522921e-01
-1.34024698e-01 -9.29389654e-01 -3.43905569e-01
5.02707055e-01 2.38415632e-01 8.30931117e-01
-9.45426141e-01 -3.15670202e-01 8.07590360e-02
-2.88353630e-01 8.34495336e-01 4.69543790e-01
-7.79153461e-02 -8.41292557e-01 5.34937295e-01
3.61024652e-01 -5.27767097e-01 -7.68843540e-01
6.28905043e-01 6.59581932e-01 -4.11617147e-01
4.59811073e-01 7.18007132e-01 -5.22530095e-01
1.48927290e-01 9.82081558e-01 -1.15481914e-01
9.13744800e-01 -1.51182962e-01 3.77114669e-01
1.86033022e-01 -9.76795061e-01 -1.06126094e-01
5.59588779e-01 4.05208974e-01 7.22958246e-01
6.62450535e-01 -4.41823442e-01 -6.04937358e-01
7.44916744e-01 1.44598123e-01 -6.51297273e-01
-3.41983159e-01 7.00249391e-01 -6.26654698e-01
8.75210142e-01 3.78150256e-01 -3.01676200e-01
1.32875058e-01 -7.92203101e-01 -5.95614281e-01
-2.74867460e-01 -8.52912764e-01 4.43834714e-01
3.03691649e-01 8.48010421e-01 -4.34336487e-01
-1.28417530e-02 3.36845460e-01 9.41474128e-01
1.24671210e-01 -7.89354898e-01 6.01147273e-01
3.41980215e-01 -7.00253688e-01 -6.26651500e-01
-1.88358273e-01 7.82911513e-03 9.82070932e-01
-7.52426026e-01 -4.71110944e-01 4.60338107e-01
-9.55960933e-01 2.36103691e-01 1.74339776e-01
-1.37619726e-02 1.08397336e-01 9.94014143e-01
-8.22300486e-01 7.55340232e-02 5.64019952e-01
-7.51432559e-01 6.51256262e-01 1.05899793e-01
-5.30288800e-01 -4.05731536e-01 -7.44428032e-01
-1.24668768e-01 7.89359167e-01 6.01142177e-01
5.38506872e-01 -1.90855830e-01 8.20723633e-01
2.99377314e-01 -8.30535995e-01 -4.69661082e-01
5.71132626e-02 -9.73984906e-01 2.19299445e-01
5.30285269e-01 4.05726456e-01 -7.44433315e-01
5.21240283e-01 -3.91903075e-01 -7.58101498e-01
-5.36584531e-01 -1.95711346e-02 8.43621347e-01
-1.93260043e-02 9.99779031e-01 8.27206592e-03
-5.21243748e-01 3.91897969e-01 -7.58101759e-01
-7.74680460e-01 -6.25830299e-01 -9.05886570e-02
9.07682917e-01 6.07829460e-02 4.15233200e-01
-5.09570388e-02 -1.62900414e-01 -9.85323995e-01
6.17491107e-01 6.66715980e-01 4.17367944e-01
-8.78097861e-01 3.55324912e-01 3.20451997e-01
-2.99379851e-01 8.30532663e-01 -4.69665363e-01
1.37679797e-02 -1.08390502e-01 9.94014805e-01
-5.15108668e-01 5.81709866e-01 -6.29503363e-01
1.28471590e-02 -3.36838835e-01 9.41476423e-01
2.74730367e-02 -9.72503465e-01 -2.31260520e-01
-3.61028183e-01 5.27761759e-01 -7.68845549e-01
8.87258190e-01 4.48542728e-01 -1.07619443e-01
-3.45615057e-01 5.28979009e-01 7.75070426e-01
3.70439331e-01 -1.19150780e-01 9.21184578e-01
9.59896427e-01 2.53418823e-01 -1.19905489e-01
1.66038701e-01 4.29527063e-01 8.87660279e-01
2.09670776e-01 6.20911666e-01 -7.55317295e-01
1.60840612e-01 -6.37483822e-01 7.53490092e-01
5.04889113e-01 -1.78078113e-01 -8.44613640e-01
-1.66033815e-01 -4.29520667e-01 8.87664287e-01
4.73831437e-01 8.73365393e-01 1.12769923e-01
-2.09674450e-01 -6.20916901e-01 -7.55311971e-01
-7.81673941e-01 2.85995542e-01 -5.54247650e-01
-9.33908224e-01 -1.75702187e-01 -3.11356836e-01
4.98755094e-01 -5.84818782e-01 6.39712898e-01
-4.72053695e-01 7.40428516e-01 4.78469022e-01
-4.37432542e-02 -7.10322089e-01 7.02517988e-01
1.12321100e-01 9.34463077e-01 3.37881514e-01
-8.07970139e-01 2.72850660e-01 5.22243823e-01
-8.90141556e-02 9.03605193e-01 4.19017433e-01
-9.46847153e-03 3.59540746e-01 -9.33079591e-01
-8.99106808e-02 -8.42674969e-01 -5.30860716e-01
7.74679807e-01 6.25829978e-01 -9.05964476e-02
1.89343718e-01 -2.29453452e-01 9.54726883e-01
1.88364077e-01 -7.82224549e-03 9.82069873e-01
-2.12848576e-01 -6.00532502e-01 7.70752168e-01
-4.45123999e-01 -7.29459667e-01 5.19379480e-01
-2.31012096e-01 9.68626657e-01 9.16304314e-02
8.73703926e-01 3.97485294e-01 2.80442284e-01
3.14022859e-01 9.21196894e-01 -2.29750128e-01
-7.70817864e-01 5.68755258e-01 2.86981337e-01
3.78085210e-01 -9.20059666e-01 -1.02671425e-01
-9.94311022e-01 1.04404388e-01 2.11043492e-02
8.22303362e-01 -7.55308647e-02 5.64016177e-01
-1.12109224e-01 4.02475404e-02 -9.92878729e-01
-8.61268369e-01 -4.99303636e-01 9.44087280e-02
-4.25472751e-01 8.99428856e-01 1.00005128e-01
6.24753740e-01 -7.23483948e-01 2.93691622e-01
-4.18584114e-01 -6.07269774e-01 6.75287445e-01
-5.53555104e-01 8.26571260e-01 -1.01766132e-01
-2.15733092e-01 -2.83723174e-01 -9.34321739e-01
5.15105876e-01 -5.81713985e-01 -6.29501837e-01
4.56890250e-01 8.23503229e-01 3.36295872e-01
-1.80357376e-01 4.46493330e-01 8.76423416e-01
-5.93142352e-01 -2.01631463e-01 -7.79438366e-01
6.41018702e-01 7.36831737e-01 -2.14879643e-01
-4.11893924e-01 -5.96685220e-01 -6.88700025e-01
1.52705826e-01 4.65544649e-01 -8.71748845e-01
9.74543863e-01 -2.10149703e-02 2.23211583e-01
-3.77043769e-01 -4.61593908e-01 8.02976887e-01
7.63047862e-01 -6.74814850e-02 -6.42807863e-01
7.70818996e-01 -5.68754181e-01 2.86980420e-01
-8.73702784e-01 -3.97483178e-01 2.80448845e-01
-6.91176962e-01 -3.49106587e-01 -6.32769135e-01
-2.70686517e-01 -8.96848000e-02 -9.58479045e-01
-3.27207906e-01 1.13460686e-01 -9.38114260e-01
-7.17506579e-01 -3.37531915e-01 6.09309984e-01
-8.87258886e-01 -4.48543048e-01 -1.07612392e-01
8.66934720e-01 8.50387178e-02 -4.91111882e-01
6.56362604e-01 -2.36937239e-01 -7.16272545e-01
1.45666801e-01 9.81657770e-01 1.23002601e-01
4.78264919e-01 8.70002755e-01 -1.19822593e-01
-8.14616319e-02 9.01246657e-01 -4.25578400e-01
-1.86034012e-01 9.76794220e-01 -1.06132123e-01
6.27255576e-01 -1.26605220e-02 -7.78708814e-01
-5.02702298e-01 -2.38409795e-01 8.30935671e-01
-9.13742871e-01 1.51185310e-01 3.77118411e-01
5.91003763e-01 5.47715849e-01 -5.92216025e-01
4.83033591e-01 8.11361070e-01 -3.29196914e-01
7.52428049e-01 4.71114067e-01 4.60331601e-01
-1.60836804e-01 6.37489203e-01 7.53486355e-01
2.74869039e-01 8.52916215e-01 4.43827109e-01
9.45493052e-01 1.95885290e-01 2.60139872e-01
2.70682165e-01 8.96781065e-02 -9.58480900e-01
-8.43175444e-01 5.35216053e-01 -5.09781554e-02
-7.75314003e-01 -5.64789149e-01 -2.82666627e-01
4.72055609e-01 -7.40425587e-01 4.78471660e-01
9.46415792e-03 -3.59547335e-01 -9.33077095e-01
4.15556203e-01 2.50051617e-01 -8.74519387e-01
3.56663827e-01 -3.26961642e-01 -8.75147943e-01
-4.56889062e-01 -8.23500540e-01 3.36304067e-01
