3.37340184e-01 2.78259434e-01 8.99319705e-01
4.39621664e-01 -8.36181741e-02 8.94283748e-01
6.19197912e-01 7.83494140e-01 5.22592764e-02
5.76185995e-01 -1.98164300e-01 7.92933124e-01
1.41584165e-01 9.62796193e-01 -2.30166766e-01
4.37307623e-01 -3.48089752e-01 -8.29212354e-01
2.81838077e-02 7.01510359e-01 -7.12100272e-01
9.61160488e-01 -1.71205623e-01 -2.16468271e-01
2.96081045e-01 7.58813695e-02 9.52145384e-01
1.80869943e-01 -6.90832217e-01 -7.00024893e-01
4.37968872e-02 9.15560477e-01 -3.99787035e-01
4.83883587e-01 -8.56335034e-01 1.80409286e-01
-8.82939064e-01 -1.71227058e-01 4.37151222e-01
9.26367601e-01 -3.43321310e-01 1.54835392e-01
-5.03565862e-01 -5.86634298e-01 6.34258218e-01
8.77930772e-01 -5.42800174e-02 4.75702256e-01
5.63060363e-01 6.64523370e-01 -4.91294489e-01
-3.67776728e-01 -7.30253501e-01 5.75735872e-01
-1.20950075e-01 -9.80209871e-01 1.56716769e-01
-3.82489635e-01 6.52386628e-01 -6.54286975e-01
5.62839343e-02 -7.19078165e-01 6.92647634e-01
2.86235750e-01 -9.39009681e-01 1.90605539e-01
-6.25374984e-01 -7.32067317e-01 2.70156187e-01
-1.72608182e-01 -3.69776378e-01 -9.12945322e-01
6.69702520e-01 -7.21110396e-01 1.77479155e-01
1.47118230e-01 2.42764863e-01 9.58866136e-01
-8.21845021e-01 5.43705658e-01 1.70162930e-01
-4.24398807e-01 -7.28670549e-03 -9.05444584e-01
2.09806050e-01 -8.11124529e-01 5.45948735e-01
8.36359645e-01 3.86124851e-01 3.89116032e-01
-9.31881933e-01 -2.08502630e-01 -2.96853237e-01
7.00275900e-01 -1.20404618e-01 -7.03643604e-01
-7.78578508e-01 2.69520900e-01 -5.66720678e-01
8.58759163e-01 1.64320924e-01 -4.85314234e-01
-2.40190001e-01 1.31612515e-01 9.61763868e-01
-3.65802248e-01 8.67188676e-01 -3.37892773e-01
-3.67751371e-01 -7.61699429e-01 -5.33452284e-01
6.94604939e-01 5.06621082e-01 5.10745103e-01
8.39242937e-02 5.92227277e-01 8.01389994e-01
-2.11584891e-01 -8.44125588e-01 4.92630970e-01
-6.61535089e-01 -6.85572425e-01 -3.03909332e-01
-7.62107681e-01 -3.32627861e-01 -5.55471832e-01
-4.39621627e-01 8.36180094e-02 8.94283783e-01
4.33763706e-01 8.07875303e-01 3.98983354e-01
3.82488984e-01 -6.52385074e-01 -6.54288901e-01
6.66808102e-01 1.95212747e-01 7.19208629e-01
-1.82087905e-01 9.83280437e-01 1.89361526e-03
4.75932139e-01 8.03750228e-01 -3.57033782e-01
-8.36359066e-01 -3.86126263e-01 3.89115879e-01
-2.10990867e-01 1.12039526e-02 -9.77422351e-01
-9.53387997e-01 -2.56335633e-02 3.00657835e-01
-1.19815855e-01 1.94819624e-01 -9.73491969e-01
1.72606257e-01 3.69778072e-01 -9.12945001e-01
-6.16084823e-01 -4.14259100e-01 6.69948400e-01
4.81089347e-01 8.52988356e-01 2.02396889e-01
-3.55795444e-01 8.58211505e-01 3.69977979e-01
-3.33916562e-01 1.82361420e-01 -9.24792584e-01
-2.09805727e-01 8.11124562e-01 5.45948816e-01
-2.51197693e-01 8.05864931e-01 -5.36171482e-01
-3.69740429e-01 2.79685984e-01 8.86041970e-01
-4.89538895e-01 -1.08864287e-01 8.65160553e-01
2.18060594e-01 4.46476358e-01 8.67819677e-01
-7.18922691e-01 6.06000831e-01 3.40461689e-01
-8.49772735e-01 4.10320980e-01 3.30944056e-01
4.39778781e-01 -7.53957760e-01 -4.87996805e-01
-1.92949352e-02 -4.06074861e-01 9.13637564e-01
-4.12188961e-01 -4.68306427e-01 7.81531604e-01
7.18922684e-01 -6.06001338e-01 3.40460791e-01
4.33750415e-01 -5.93108022e-01 6.78295985e-01
-5.92327602e-01 8.05677097e-01 5.69625533e-03
8.88249706e-01 -2.26026397e-01 -3.99904175e-01
7.62107524e-01 3.32627515e-01 -5.55472253e-01
9.21383517e-01 -2.04169608e-01 3.30708567e-01
-5.68394356e-01 -8.05838886e-01 -1.65985112e-01
6.29973078e-01 4.88656768e-01 -6.03611390e-01
-3.65729849e-01 -3.44867114e-01 -8.64468513e-01
-5.79251649e-01 6.16413320e-01 -5.33385958e-01
-8.09574152e-02 9.79449484e-01 1.84729940e-01
-9.79401959e-01 -1.87698088e-01 -7.44379777e-02
6.87369292e-01 -3.07229966e-01 6.58130031e-01
6.23262848e-01 -3.17175700e-01 -7.14801297e-01
1.16414225e-01 -5.49811274e-01 8.27138272e-01
4.89924447e-01 -8.55359083e-01 -1.68328183e-01
-2.32808815e-01 3.66440894e-01 -9.00843205e-01
-7.00276727e-01 1.20406185e-01 -7.03642515e-01
7.39586312e-01 -4.60948453e-01 4.90448824e-01
5.31296796e-01 -1.59187359e-01 -8.32094136e-01
-6.19196775e-01 -7.83495037e-01 5.22592903e-02
-4.46445201e-01 -6.08460956e-01 -6.56094519e-01
-3.17981791e-01 -9.40091958e-01 1.22943286e-01
-2.76628991e-01 9.44867729e-01 -1.75216619e-01
6.11986112e-01 4.14233642e-02 -7.89781476e-01
-9.78210385e-01 -3.31289454e-02 -2.04954421e-01
-6.75556245e-01 7.17744525e-01 -1.68718891e-01
-5.15861694e-01 -2.98255971e-01 8.03076864e-01
5.08753611e-01 4.25098562e-01 -7.48637946e-01
3.55796062e-01 -8.58211506e-01 3.69977374e-01
-9.98531554e-01 4.85978610e-02 -2.39356490e-02
-7.57824714e-01 -6.41004127e-01 1.21720048e-01
-5.63059683e-01 -6.64523886e-01 -4.91294570e-01
-4.37966626e-02 -9.15559969e-01 -3.99788217e-01
-4.75931252e-01 -8.03750663e-01 -3.57033982e-01
-4.67115773e-03 8.47575375e-01 5.30655940e-01
-4.33750583e-01 5.93107626e-01 6.78296227e-01
2.65512135e-01 8.81985891e-01 -3.89362365e-01
-1.07432311e-01 5.48310574e-01 -8.29343943e-01
2.37571129e-01 6.84226491e-01 -6.89486796e-01
5.79250822e-01 -6.16412182e-01 -5.33388166e-01
-2.37571457e-01 -6.84225347e-01 -6.89487816e-01
6.00289617e-01 -4.88455923e-01 6.33296965e-01
-8.63507202e-01 -4.65133993e-01 1.94951929e-01
7.28748465e-01 6.78300097e-01 -9.39913693e-02
8.16798831e-01 -4.22838550e-01 -3.92487036e-01
-2.81842690e-02 -7.01508985e-01 -7.12101604e-01
-1.41583057e-01 -9.62796193e-01 -2.30167438e-01
4.95945075e-01 -3.90898114e-01 7.75396302e-01
-5.62838623e-02 7.19078287e-01 6.92647517e-01
2.94170832e-01 1.70008676e-01 -9.40509334e-01
5.69890417e-01 -7.50401045e-01 -3.34846528e-01
-9.59767488e-07 8.65433946e-07 -9.99998530e-01
2.51197161e-01 -8.05863854e-01 -5.36173345e-01
-4.83882888e-01 8.56335181e-01 1.80410484e-01
-5.08754536e-01 -4.25098172e-01 -7.48637539e-01
2.73001639e-02 -3.80058546e-01 -9.24557993e-01
-7.67822382e-01 -3.02487706e-01 5.64758036e-01
-8.77930860e-01 5.42788483e-02 4.75702232e-01
-9.33128404e-01 -2.54585654e-01 2.53886339e-01
-5.45774065e-01 7.62232041e-01 3.48043118e-01
9.87315375e-01 1.07700851e-01 1.16658553e-01
4.52687858e-01 8.91389860e-01 -2.23104597e-02
-1.63828658e-01 9.11591970e-01 -3.77039980e-01
-9.40856768e-01 -3.33598919e-01 5.91648362e-02
-8.39241753e-02 -5.92227192e-01 8.01390068e-01
1.92949593e-02 4.06075122e-01 9.13637449e-01
8.48713734e-01 3.76412781e-01 -3.71479908e-01
-8.86488686e-02 -1.86729238e-01 -9.78402112e-01
3.17983323e-01 9.40091387e-01 1.22943707e-01
9.04431797e-01 -3.70047494e-01 -2.12290719e-01
1.63828653e-01 -9.11591298e-01 -3.77041597e-01
9.33128778e-01 2.54584195e-01 2.53886425e-01
-6.23263795e-01 3.17177472e-01 -7.14799688e-01
8.28591304e-01 -6.07164633e-02 -5.56550379e-01
-2.18060488e-01 -4.46476248e-01 8.67819759e-01
-2.65511366e-01 -8.81985909e-01 -3.89362844e-01
3.64840980e-01 9.06964415e-01 -2.10489885e-01
5.75960301e-01 6.73372669e-01 4.63508731e-01
4.89538807e-01 1.08864090e-01 8.65160626e-01
9.76407985e-02 2.93139024e-02 9.94791382e-01
8.63507874e-01 4.65132687e-01 1.94952066e-01
1.53073627e-01 -9.15112561e-01 3.73012814e-01
-1.47118261e-01 -2.42764653e-01 9.58866184e-01
6.61535980e-01 6.85571532e-01 -3.03909408e-01
-9.76408226e-02 -2.93137283e-02 9.94791385e-01
-1.77411907e-01 3.50572108e-01 9.19579750e-01
-2.96081117e-01 -7.58813393e-02 9.52145364e-01
-6.66808081e-01 -1.95213403e-01 7.19208472e-01
3.33914958e-01 -1.82359542e-01 -9.24793532e-01
9.79450583e-01 -1.28488305e-01 1.55459854e-01
-2.86234646e-01 9.39009854e-01 1.90606363e-01
8.08318049e-01 5.41103431e-01 -2.32009323e-01
9.40857201e-01 3.33597675e-01 5.91649572e-02
-6.45949275e-01 -2.72906238e-01 -7.12930308e-01
7.28506127e-01 5.31766166e-01 -4.31859117e-01
2.32613938e-01 9.71028386e-01 -5.47217694e-02
3.67777434e-01 7.30253200e-01 5.75735805e-01
-7.91364754e-01 -8.51273233e-02 6.05389913e-01
9.31882111e-01 2.08501769e-01 -2.96853278e-01
2.48948586e-02 9.99361469e-01 -2.56286420e-02
8.08843672e-01 -5.54585962e-01 -1.95462906e-01
-8.58759264e-01 -1.64321177e-01 -4.85313972e-01
2.11585611e-01 8.44125159e-01 4.92631399e-01
8.86469233e-02 1.86730966e-01 -9.78401959e-01
-5.75959184e-01 -6.73373663e-01 4.63508673e-01
-5.69891003e-01 7.50401589e-01 -3.34844321e-01
-2.88092820e-01 -6.16528852e-01 7.32732458e-01
-9.14082492e-01 -3.72934578e-01 -1.59287573e-01
4.04169148e-01 -7.42567439e-01 5.34080954e-01
-9.21093122e-01 1.41068791e-02 -3.89085227e-01
-9.04432322e-01 3.70047043e-01 -2.12289285e-01
3.10603193e-01 -4.85569494e-01 8.17159913e-01
4.24397215e-01 7.28842727e-03 -9.05445316e-01
2.88093428e-01 6.16528625e-01 7.32732411e-01
-7.46780717e-01 -5.78040114e-01 3.28921198e-01
7.62079578e-01 -6.47480394e-01 1.96447596e-03
8.54839117e-01 5.18560978e-01 -1.85618182e-02
-8.54838418e-01 -5.18562130e-01 -1.85618303e-02
-9.79450712e-01 1.28486987e-01 1.55460145e-01
-1.53072639e-01 9.15112595e-01 3.73013144e-01
-2.50597362e-01 6.69521821e-01 6.99244986e-01
6.45948510e-01 2.72906589e-01 -7.12930866e-01
-9.21383688e-01 2.04168419e-01 3.30708832e-01
-5.31297968e-01 1.59189267e-01 -8.32093024e-01
-7.54221634e-01 1.15025063e-01 6.46467992e-01
-4.81087990e-01 -8.52989154e-01 2.02396744e-01
3.65727843e-01 3.44868698e-01 -8.64468729e-01
3.69740533e-01 -2.79686104e-01 8.86041887e-01
-7.28747538e-01 -6.78301100e-01 -9.39913143e-02
-2.94172735e-01 -1.70007051e-01 -9.40509032e-01
-6.95791788e-02 9.76286002e-01 -2.04997026e-01
-4.52686572e-01 -8.91390509e-01 -2.23105675e-02
2.76629553e-01 -9.44867286e-01 -1.75218105e-01
3.13880942e-01 -5.22107379e-01 -7.93019738e-01
-1.80870502e-01 6.90833663e-01 -7.00023325e-01
3.92259181e-01 -9.19846171e-01 3.97046055e-03
-5.90477827e-02 -9.33589331e-01 3.53447815e-01
9.21092967e-01 -1.41072350e-02 -3.89085576e-01
6.36299628e-01 -3.00657360e-03 7.71437626e-01
7.10079762e-01 -5.98499027e-01 -3.70923918e-01
5.84253347e-01 -6.39033540e-01 5.00285547e-01
7.57825670e-01 6.41003003e-01 1.21720014e-01
4.73717990e-02 -1.92284798e-01 9.80196588e-01
-3.13881811e-01 5.22109274e-01 -7.93018149e-01
4.46445303e-01 6.08461155e-01 -6.56094266e-01
-9.26367842e-01 3.43320304e-01 1.54836197e-01
-7.10080524e-01 5.98499489e-01 -3.70921720e-01
6.16085183e-01 4.14258555e-01 6.69948406e-01
2.71500998e-01 9.09297590e-01 3.15382357e-01
5.03566425e-01 5.86633847e-01 6.34258189e-01
8.49772537e-01 -4.10321927e-01 3.30943382e-01
-6.00289795e-01 4.88455225e-01 6.33297340e-01
-8.28591690e-01 6.07168590e-02 -5.56549764e-01
3.65802018e-01 -8.67188005e-01 -3.37894731e-01
7.91364719e-01 8.51262726e-02 6.05390104e-01
-7.28505691e-01 -5.31767025e-01 -4.31858795e-01
5.28093422e-02 -8.24426954e-01 -5.63497747e-01
-5.28096890e-02 8.24427943e-01 -5.63496273e-01
5.68395463e-01 8.05838104e-01 -1.65985121e-01
6.25376175e-01 7.32066302e-01 2.70156184e-01
8.84682644e-01 -4.65842267e-01 -1.80981915e-02
-6.69702311e-01 7.21110267e-01 1.77480486e-01
-3.10603215e-01 4.85569443e-01 8.17159938e-01
-6.87369456e-01 3.07229134e-01 6.58130251e-01
5.15861847e-01 2.98255650e-01 8.03076885e-01
-8.16799563e-01 4.22838802e-01 -3.92485249e-01
8.21844869e-01 -5.43706278e-01 1.70161664e-01
1.19813965e-01 -1.94817881e-01 -9.73492550e-01
9.14082930e-01 3.72933506e-01 -1.59287567e-01
-1.16414225e-01 5.49811497e-01 8.27138127e-01
1.46597736e-01 7.41832671e-01 6.54366349e-01
7.78577736e-01 -2.69519982e-01 -5.66722171e-01
5.92327838e-01 -8.05676931e-01 5.69453879e-03
4.67178675e-03 -8.47575445e-01 5.30655819e-01
-6.94604142e-01 -5.06622184e-01 5.10745093e-01
1.82089071e-01 -9.83280220e-01 1.89261461e-03
-6.36299742e-01 3.00599011e-03 7.71437536e-01
1.01345157e-01 5.49594105e-01 -8.29260540e-01
3.67752117e-01 7.61699336e-01 -5.33451905e-01
-3.64839874e-01 -9.06964796e-01 -2.10490151e-01
9.64422135e-01 -2.62802593e-01 -2.87168048e-02
9.79402180e-01 1.87696952e-01 -7.44379241e-02
-5.84253357e-01 6.39033059e-01 5.00286157e-01
-3.06104033e-01 -5.25821951e-01 -7.93605231e-01
-1.46597313e-01 -7.41833019e-01 6.54366046e-01
-5.76186058e-01 1.98163738e-01 7.92933221e-01
9.98531485e-01 -4.85990996e-02 -2.39359135e-02
-2.32612545e-01 -9.71028689e-01 -5.47222670e-02
9.53388044e-01 2.56321733e-02 3.00657796e-01
1.07431467e-01 -5.48308897e-01 -8.29345159e-01
-4.89924447e-01 8.55359460e-01 -1.68326288e-01
6.93119961e-01 -4.54249784e-01 -5.59678662e-01
2.50597276e-01 -6.69521826e-01 6.99245010e-01
-7.39586474e-01 4.60947667e-01 4.90449325e-01
-9.87315219e-01 -1.07702242e-01 1.16658602e-01
8.09588822e-02 -9.79449476e-01 1.84729325e-01
-6.29973224e-01 -4.88657120e-01 -6.03610951e-01
-4.04169033e-01 7.42567219e-01 5.34081353e-01
5.45774371e-01 -7.62232226e-01 3.48042225e-01
7.54221466e-01 -1.15025993e-01 6.46468019e-01
5.01497944e-01 1.98857362e-01 -8.41993519e-01
-8.88250240e-01 2.26026312e-01 -3.99903044e-01
7.46781636e-01 5.78038918e-01 3.28921214e-01
-4.33762283e-01 -8.07876153e-01 3.98983176e-01
3.06103169e-01 5.25823373e-01 -7.93604623e-01
7.67822670e-01 3.02486590e-01 5.64758240e-01
-4.37308878e-01 3.48091789e-01 -8.29210839e-01
-4.39779445e-01 7.53958756e-01 -4.87994675e-01
2.32807222e-01 -3.66439018e-01 -9.00844378e-01
-4.95945132e-01 3.90897615e-01 7.75396520e-01
1.77411968e-01 -3.50571919e-01 9.19579809e-01
6.75555856e-01 -7.17744383e-01 -1.68721028e-01
8.23528416e-01 -2.64232352e-01 5.01979767e-01
-8.23528596e-01 2.64231343e-01 5.01980007e-01
-1.01346044e-01 -5.49592534e-01 -8.29261470e-01
8.82939259e-01 1.71225688e-01 4.37151361e-01
-8.08844232e-01 5.54585843e-01 -1.95460943e-01
-4.73717843e-02 1.92285028e-01 9.80196544e-01
-3.92258472e-01 9.19846471e-01 3.97180333e-03
-3.37340184e-01 -2.78259434e-01 8.99319705e-01
5.90491475e-02 9.33589118e-01 3.53448155e-01
-2.73019697e-02 3.80060227e-01 -9.24557250e-01
-6.11987353e-01 -4.14217162e-02 -7.89780602e-01
-9.64422430e-01 2.62801615e-01 -2.87159575e-02
2.10988994e-01 -1.12022498e-02 -9.77422774e-01
6.95800795e-02 -9.76285685e-01 -2.04998214e-01
-2.48934433e-02 -9.99361481e-01 -2.56294434e-02
4.12189280e-01 4.68306129e-01 7.81531615e-01
-5.01499676e-01 -1.98855818e-01 -8.41992852e-01
-6.93120809e-01 4.54250902e-01 -5.59676710e-01
-8.84682995e-01 4.65841665e-01 -1.80967367e-02
-8.08317396e-01 -5.41104465e-01 -2.32009187e-01
-5.17050293e-01 4.95401547e-01 -6.98021670e-01
9.78210393e-01 3.31280055e-02 -2.04954525e-01
7.51103459e-01 1.08622492e-01 -6.51185713e-01
5.17049447e-01 -4.95399733e-01 -6.98023580e-01
-7.51103976e-01 -1.08622042e-01 -6.51185193e-01
-1.55816539e-01 -8.16294855e-01 -5.56221429e-01
2.40190069e-01 -1.31612453e-01 9.61763859e-01
1.55816579e-01 8.16295652e-01 -5.56220253e-01
-8.48713431e-01 -3.76413642e-01 -3.71479730e-01
1.20951742e-01 9.80209575e-01 1.56717351e-01
-2.71499455e-01 -9.09298240e-01 3.15381803e-01
-9.61160802e-01 1.71204874e-01 -2.16467479e-01
-7.62079772e-01 6.47480166e-01 1.96626665e-03
