6.45224384e-01 -6.17129368e-01 4.50374108e-01
6.96711401e-01 -1.39613188e-01 7.03634409e-01
5.93500835e-01 2.71771590e-01 -7.57559873e-01
-2.00231209e-01 8.03559187e-01 5.60535544e-01
1.45999614e-01 6.18654150e-01 7.71978728e-01
-4.13852687e-01 9.08560147e-01 -5.69597443e-02
3.97807418e-01 8.44308675e-01 3.59015486e-01
1.39202185e-01 5.63067468e-01 -8.14602835e-01
-5.32111519e-01 3.78101006e-01 -7.57559873e-01
-5.15152274e-01 -7.31982971e-01 4.45891316e-01
5.11489835e-01 6.14786176e-01 -6.00346656e-01
-4.08264958e-01 6.87679880e-01 6.00346656e-01
-2.42156265e-01 5.15370274e-01 8.22042471e-01
-4.78050134e-01 8.68669474e-01 1.29928497e-01
-5.83846746e-01 8.08584427e-01 -7.28985688e-02
-8.47335475e-02 -8.82363915e-01 4.62875953e-01
-5.43282929e-01 3.61865580e-01 7.57559873e-01
3.38217681e-01 -2.88068432e-01 8.95893620e-01
-1.53376860e-01 3.02881059e-01 -9.40605445e-01
7.58445306e-01 6.40633107e-01 -1.19791235e-01
-7.49266290e-01 5.98029537e-01 -2.84535936e-01
-4.60977072e-01 -5.43840668e-01 -7.01239949e-01
2.76539416e-01 4.70133874e-01 8.38152786e-01
-9.30096470e-01 -7.76430075e-02 3.59015486e-01
-4.17433208e-02 -6.51429608e-01 7.57559873e-01
-2.40491298e-01 6.71138189e-01 -7.01239949e-01
-9.27302952e-01 -2.77783174e-01 2.50889902e-01
-1.85614262e-01 -2.84268787e-01 -9.40605445e-01
-4.08331282e-01 -9.09918328e-01 -7.28985687e-02
-4.00658414e-03 2.37915916e-01 9.71277491e-01
3.93421137e-01 -8.03990512e-01 -4.45891316e-01
-3.68019212e-01 -7.09729714e-01 -6.00704247e-01
4.73965748e-01 4.63492229e-01 7.48686466e-01
-5.57231824e-01 -1.60981106e-01 -8.14602835e-01
-6.06010107e-01 6.52264746e-01 -4.55304789e-01
-6.96887998e-01 6.51556466e-01 2.99702001e-01
2.51630130e-01 -7.58839037e-01 6.00704247e-01
4.88426665e-01 1.31610017e-01 8.62622858e-01
-9.17662792e-02 9.95522406e-01 -2.26735295e-02
3.90920661e-01 3.05080907e-01 8.68393158e-01
-3.37690984e-01 3.50170926e-02 9.40605445e-01
-6.23991028e-01 -3.85705202e-01 6.79607749e-01
-1.30235714e-01 -4.88794909e-01 8.62622858e-01
9.73289756e-03 8.54122666e-01 5.19980521e-01
6.65963362e-02 -9.93992031e-01 8.68606398e-02
-4.37798367e-01 8.63317448e-01 -2.51029028e-01
-2.47423804e-02 -1.22849771e-01 -9.92116802e-01
-4.61598375e-01 2.06902742e-01 -8.62622858e-01
-8.57061902e-01 -2.50216024e-01 4.50374108e-01
-2.50785184e-01 -6.31883899e-01 7.33368618e-01
-6.63856463e-02 -3.12159671e-01 9.47707384e-01
7.55538034e-01 -5.63034645e-01 -3.34894413e-01
4.62770403e-01 -4.35766450e-01 7.71978727e-01
4.14324722e-02 2.34314716e-01 -9.71277491e-01
-3.30157774e-01 9.04432701e-01 2.70180186e-01
-3.95040749e-01 5.32363957e-01 -7.48686466e-01
-8.22053877e-01 -1.00136544e-01 -5.60535544e-01
5.85026249e-01 2.89564028e-01 7.57559873e-01
-4.43164446e-01 7.84603219e-01 -4.33593200e-01
9.66554025e-01 -5.25142161e-02 -2.51029028e-01
-8.57564788e-01 4.18044669e-01 -2.99702002e-01
6.60432771e-01 4.29940373e-01 -6.15613378e-01
7.90819697e-01 5.33650557e-01 -2.99702002e-01
-8.34793827e-01 -4.36995421e-01 3.34894413e-01
6.87474854e-02 -4.91087677e-01 8.68393158e-01
-4.18098590e-01 -8.54662897e-01 3.07806597e-01
-2.59847933e-01 8.96430105e-01 -3.59015486e-01
6.48826910e-01 6.95901386e-01 -3.07806597e-01
9.75374188e-01 1.85189777e-01 1.19791235e-01
7.96018273e-01 -2.28374280e-01 5.60535544e-01
-7.88165364e-01 1.35570103e-01 -6.00346656e-01
2.76675529e-01 -7.50356279e-01 -6.00346655e-01
-3.40272568e-01 -4.26279823e-01 -8.38152786e-01
-3.27308043e-01 -9.37293713e-01 1.19791235e-01
6.58561085e-01 7.59333451e-02 -7.48686466e-01
-4.03786172e-01 -2.13211469e-02 -9.14604907e-01
-4.18583421e-01 -1.48870887e-01 8.95893620e-01
-3.42277653e-01 -8.99343435e-01 -2.72079756e-01
6.69321559e-01 -5.30687203e-01 -5.19980521e-01
1.83519492e-01 7.59762299e-01 6.23764254e-01
4.20231790e-01 9.04268689e-01 -7.55207316e-02
3.24306148e-01 7.61987812e-01 -5.60535544e-01
-5.95787065e-01 -5.75184907e-01 5.60535544e-01
-5.84464958e-01 5.28602763e-01 6.15613378e-01
8.92541917e-01 3.49868873e-01 -2.84535936e-01
3.03531029e-01 9.85881797e-02 9.47707384e-01
4.97747729e-01 -6.61851269e-01 -5.60535544e-01
3.69557941e-01 -6.09663401e-01 7.01239949e-01
9.19575162e-01 3.78802813e-01 1.04354924e-01
7.05570424e-01 -3.36286383e-01 -6.23764254e-01
-8.65371323e-01 -3.72797809e-01 -3.34894413e-01
9.49993088e-01 1.53250575e-01 -2.72079756e-01
-9.13993932e-01 3.00977903e-01 2.72079756e-01
-2.04037935e-01 -1.22427762e-01 9.71277491e-01
9.48340583e-01 -1.66291331e-01 2.70180186e-01
4.18029639e-01 -4.02086362e-01 -8.14602835e-01
-2.20349896e-02 7.33244684e-01 6.79607749e-01
-3.58190951e-01 3.57184892e-01 8.62622858e-01
8.34112685e-01 4.72541353e-01 2.84535936e-01
6.56364974e-01 4.30613794e-01 6.19481058e-01
6.46026018e-01 -3.47539481e-01 6.79607749e-01
-5.31110486e-01 7.89415449e-01 3.07806597e-01
-7.38512955e-01 4.90249393e-01 -4.62875953e-01
-6.94395087e-01 -7.15620069e-01 7.55207315e-02
9.66942702e-01 -2.43553751e-01 7.55207315e-02
-2.47413544e-01 9.55990095e-01 -1.57700591e-01
8.12076403e-01 -5.72179776e-01 -1.14639519e-01
-6.15526614e-02 7.79185103e-01 -6.23764254e-01
3.73229199e-01 -9.18595967e-01 -1.29928497e-01
-5.80341867e-01 5.28627029e-01 -6.19481058e-01
-1.67633503e-01 -7.66904314e-01 -6.19481058e-01
-7.04204936e-01 -6.92261462e-01 -1.57700591e-01
-1.99032871e-01 5.07824599e-01 -8.38152786e-01
3.94909995e-01 9.05083764e-01 1.57700591e-01
6.08912844e-01 7.82523951e-01 -1.29928497e-01
5.68320535e-01 7.83579094e-01 2.51029028e-01
3.30644746e-01 6.28945681e-01 -7.03634409e-01
8.68624943e-01 1.55279439e-01 4.70509304e-01
5.98080844e-01 -6.98083906e-01 -3.93672661e-01
-3.76339711e-01 8.12126441e-01 4.45891316e-01
8.03657400e-02 4.36939320e-01 8.95893620e-01
3.95386936e-01 -8.46583411e-02 9.14604907e-01
5.55445958e-01 -4.79179606e-01 -6.79607749e-01
6.67950855e-01 5.76595743e-01 -4.70509304e-01
9.01068543e-01 -8.50994081e-03 -4.33593200e-01
1.09833289e-01 9.35832453e-01 -3.34894413e-01
-7.82352589e-03 -9.58633451e-01 2.84535936e-01
-2.57365049e-01 8.00482724e-01 -5.41286098e-01
-5.68788410e-01 6.74611547e-01 4.70509303e-01
-9.62695478e-01 -1.48352056e-02 -2.70180186e-01
7.01468370e-01 -1.27297521e-01 -7.01239949e-01
3.80242144e-01 7.49950180e-01 5.41286097e-01
2.47561885e-01 -5.12795562e-01 -8.22042471e-01
5.24918125e-01 -2.46745180e-01 8.14602835e-01
-4.57904096e-01 -7.76093278e-01 -4.33593199e-01
-5.13264765e-01 -8.48338297e-01 1.29928497e-01
-8.92066901e-01 -4.37120607e-01 1.14639519e-01
9.52159361e-01 2.92997919e-01 -8.68606398e-02
5.51800301e-01 8.32028855e-01 5.69597442e-02
7.47975370e-01 2.38277285e-01 -6.19481058e-01
-7.12762963e-01 -1.52148647e-02 7.01239949e-01
2.08044519e-01 -1.15488154e-01 9.71277491e-01
-8.00046793e-01 -5.44958151e-01 -2.50889902e-01
8.91491985e-01 -8.01434702e-02 4.45891316e-01
9.92178028e-01 1.01333901e-01 -7.28985688e-02
-7.49733198e-01 -2.20948608e-01 6.23764254e-01
5.72362255e-01 -2.76496461e-01 -7.71978727e-01
9.06255210e-01 -2.23180141e-01 -3.59015486e-01
9.91314899e-01 -2.03311771e-02 1.29928497e-01
4.68500074e-01 8.41136343e-01 -2.70180186e-01
-2.51868714e-02 -9.94221138e-01 -1.04354924e-01
-1.43275626e-01 -9.47898410e-01 -2.84535936e-01
-9.40198321e-02 8.28524152e-02 -9.92116802e-01
1.38519800e-01 -3.09957517e-01 9.40605445e-01
-1.05369087e-02 4.44143664e-01 -8.95893620e-01
-5.25634087e-01 -3.57432023e-01 -7.71978727e-01
-6.48667519e-01 2.03472159e-01 -7.33368618e-01
-9.27081734e-01 2.13949894e-01 -3.07806597e-01
-1.65137096e-01 9.04296177e-01 3.93672661e-01
5.73003762e-01 -8.16065750e-01 -7.55207315e-02
8.24591001e-01 -5.53992294e-01 1.14639519e-01
-5.64555850e-01 -6.23126033e-01 -5.41286097e-01
1.18762212e-01 3.99973553e-02 -9.92116802e-01
-9.93235551e-01 -8.82029393e-02 -7.55207315e-02
-7.19242064e-02 9.65339922e-01 -2.50889902e-01
-6.38378918e-01 1.78720264e-01 7.48686466e-01
4.44657974e-01 -8.93887506e-01 5.69597442e-02
-7.21782792e-01 5.14563362e-01 4.62875953e-01
1.75581892e-01 -9.77149456e-01 -1.19791235e-01
7.03924271e-01 7.06524182e-01 7.28985687e-02
-6.08770017e-01 -1.82887700e-01 7.71978728e-01
2.68878170e-01 -4.74557096e-01 8.38152786e-01
-4.69264268e-01 -5.33563179e-01 7.03634409e-01
6.67450908e-02 -9.51695226e-01 -2.99702002e-01
-8.39596979e-01 -4.56757335e-02 5.41286098e-01
8.06949131e-01 -3.82094573e-01 -4.50374108e-01
-3.91415767e-01 -6.97407765e-01 6.00346656e-01
-9.01560423e-01 -4.17188907e-01 -1.14639519e-01
7.15150192e-01 -6.98602973e-01 2.26735295e-02
1.24563760e-01 -8.81578935e-01 4.55304789e-01
4.94195404e-01 -8.26301138e-01 -2.70180186e-01
8.73614198e-01 4.75298099e-01 -1.04354924e-01
4.83229054e-01 1.11278951e-01 -8.68393158e-01
-9.82142043e-01 1.36072016e-01 -1.29928497e-01
-1.10979329e-01 5.82051560e-02 9.92116802e-01
9.12708450e-01 2.77744477e-01 2.99702002e-01
-8.33321988e-01 2.90164538e-01 -4.70509304e-01
-8.91160252e-01 1.33530303e-01 4.33593199e-01
-2.27447133e-01 6.73176366e-01 7.03634409e-01
2.47432826e-01 9.68639720e-01 2.26735294e-02
2.70534859e-01 9.41215470e-01 -2.02297627e-01
5.31358819e-01 5.97337604e-01 6.00704247e-01
-4.59668146e-01 1.86006770e-01 8.68393158e-01
-9.03598819e-01 -1.68911251e-01 -3.93672661e-01
-7.94249379e-01 -3.14305872e-01 -5.19980521e-01
-2.15820452e-01 -9.29300943e-01 2.99702002e-01
-2.37145382e-01 2.13571492e-01 9.47707384e-01
7.93824906e-01 3.94446283e-01 -4.62875953e-01
-6.07715435e-01 7.46092861e-01 -2.72079756e-01
-4.87714684e-02 5.77965021e-01 8.14602835e-01
8.27524182e-01 5.54670134e-01 8.68606397e-02
1.64413171e-01 -6.42212492e-01 7.48686466e-01
1.05896808e-01 6.70083398e-02 9.92116802e-01
-9.62759669e-01 1.00390474e-01 2.51029028e-01
2.23084190e-01 9.41959501e-01 2.50889902e-01
-2.84212452e-01 1.45168855e-01 -9.47707384e-01
-7.34378172e-01 -5.07791160e-01 -4.50374108e-01
4.09982218e-01 2.96304548e-01 -8.62622858e-01
7.50015901e-01 2.41860120e-01 6.15613378e-01
-9.62583018e-01 -2.70036747e-01 2.26735294e-02
8.71970999e-01 -4.20381771e-01 -2.50889902e-01
8.06516339e-01 3.67800553e-01 4.62875953e-01
5.67401882e-01 -4.79716594e-02 8.22042471e-01
-8.25751633e-01 3.32914087e-01 4.55304789e-01
-6.46407277e-01 -6.73249964e-01 -3.59015486e-01
4.47399980e-02 -7.83735639e-01 6.19481058e-01
-7.82988949e-01 1.61501434e-01 6.00704247e-01
3.38991122e-01 -1.86122723e-02 -9.40605445e-01
-8.92986776e-01 6.12825574e-02 -4.45891316e-01
5.16161571e-02 -5.03207290e-01 -8.62622858e-01
-6.18182808e-01 -7.38141370e-01 2.70180186e-01
3.94439134e-01 -8.83969568e-01 2.51029028e-01
-1.31734722e-01 -9.85776857e-01 1.04354924e-01
-2.71009742e-01 -3.00085961e-01 9.14604907e-01
5.00545818e-01 4.60026471e-01 -7.33368618e-01
-6.44017763e-01 -4.42898720e-01 -6.23764254e-01
1.37258733e-01 7.20620113e-01 -6.79607749e-01
9.01295385e-01 -3.83069576e-01 2.02297627e-01
7.17651476e-01 6.41053013e-01 2.72079756e-01
-4.21834916e-01 5.33128290e-01 7.33368618e-01
-5.67874927e-01 4.20028994e-02 -8.22042471e-01
-4.76146657e-01 -3.31219841e-01 8.14602835e-01
1.48121701e-01 -6.63498630e-01 -7.33368618e-01
-7.02555670e-01 3.56981370e-01 -6.15613378e-01
-2.61872786e-01 -8.50952521e-01 -4.55304789e-01
-5.45417586e-01 4.42322241e-03 8.38152786e-01
8.65712010e-01 -3.09135168e-01 3.93672661e-01
-3.37984925e-01 3.62849161e-01 -8.68393158e-01
8.67882894e-01 1.98687775e-01 -4.55304789e-01
-4.67281686e-02 6.33928484e-01 -7.71978728e-01
-3.25245617e-01 -4.67398614e-01 8.22042471e-01
9.08030833e-01 -4.18289274e-01 -2.26735294e-02
-9.63830025e-01 2.56354210e-01 7.28985687e-02
2.59905755e-01 -9.62878392e-01 7.28985688e-02
1.24927820e-01 8.44993075e-01 -5.19980521e-01
7.04218762e-01 -6.64176326e-01 2.50889902e-01
3.89477777e-02 9.41450372e-01 3.34894413e-01
-1.18899708e-01 9.72079487e-01 2.02297627e-01
7.34825478e-01 -4.35490269e-01 5.19980521e-01
-7.29823322e-01 6.78095235e-01 -8.68606398e-02
2.20357741e-01 -3.39028509e-01 -9.14604907e-01
2.11837518e-01 8.67345392e-01 4.50374108e-01
-7.82395676e-01 -5.89009911e-01 2.02297627e-01
1.63863100e-02 -3.18719631e-01 -9.47707384e-01
5.61220761e-01 7.05002266e-01 4.33593199e-01
-5.79909825e-01 -8.12687014e-01 -5.69597442e-02
1.96342456e-01 -9.42030916e-01 2.72079756e-01
6.74758999e-02 9.91112902e-01 1.14639519e-01
7.95846050e-01 -5.04454951e-01 3.34894413e-01
4.59354835e-01 -7.04274446e-01 5.41286098e-01
-9.81280529e-01 -1.10539795e-01 1.57700591e-01
5.08252050e-03 -1.25213496e-01 9.92116802e-01
4.99565640e-01 7.42707955e-01 -4.45891316e-01
-2.99836532e-01 -8.29890986e-01 4.70509304e-01
-9.50383937e-01 -2.36317675e-01 -2.02297627e-01
3.43205022e-01 6.24878265e-01 7.01239949e-01
1.99171184e-01 2.74940425e-01 9.40605445e-01
3.20313041e-01 4.70792663e-01 -8.22042471e-01
-7.25709585e-02 8.89885734e-01 -4.50374108e-01
-2.22336039e-01 -9.71093155e-01 -8.68606397e-02
-1.65550942e-01 -7.70462883e-01 6.15613378e-01
9.93762512e-01 -9.58731334e-02 -5.69597443e-02
-9.96458275e-01 6.18586515e-02 5.69597442e-02
-7.01104972e-01 3.53121844e-01 6.19481058e-01
-7.87840440e-01 6.06974045e-01 1.04354924e-01
7.01187873e-01 5.48664848e-01 4.55304789e-01
-4.30634356e-01 6.73578844e-01 -6.00704247e-01
1.83428431e-01 3.60349656e-01 -9.14604907e-01
5.39305439e-01 -8.15447768e-02 -8.38152786e-01
3.29939491e-01 -8.38532569e-01 4.33593200e-01
7.99680725e-01 9.72788536e-03 6.00346655e-01
5.86370535e-01 -7.94543969e-01 1.57700591e-01
-9.34027198e-01 3.36516349e-01 -1.19791235e-01
8.21920899e-01 -1.77356692e-01 -5.41286098e-01
-8.48427327e-01 5.18923039e-01 -1.04354924e-01
7.98653568e-01 3.61508701e-02 -6.00704247e-01
6.72620101e-01 9.87556089e-02 7.33368618e-01
5.32289052e-01 -7.66665667e-01 3.59015486e-01
-7.10005311e-01 -2.81260907e-02 -7.03634409e-01
3.89908151e-01 -2.12946602e-01 -8.95893620e-01
-2.63520337e-01 -6.08297302e-01 -7.48686466e-01
-8.26289159e-01 4.86092098e-01 2.84535936e-01
9.51618480e-01 -2.63728633e-01 -1.57700591e-01
2.78254824e-01 -9.09851280e-01 -3.07806597e-01
-6.48066145e-01 7.52103936e-01 1.19791235e-01
-6.92704691e-01 -2.41440507e-01 -6.79607749e-01
-3.79371242e-01 -2.31197063e-01 -8.95893620e-01
3.79360565e-01 -6.00819591e-01 -7.03634409e-01
6.79849078e-01 -7.04897795e-01 -2.02297627e-01
4.21228995e-02 -7.86921743e-01 -6.15613378e-01
9.49209076e-01 6.52474482e-02 3.07806597e-01
-6.13893168e-02 -6.49872596e-01 -7.57559873e-01
-8.16264554e-01 -5.77233132e-01 -2.26735293e-02
-8.94120518e-01 4.39321896e-01 8.68606397e-02
-5.53119515e-02 -8.84695677e-01 -4.62875953e-01
1.65371133e-01 -8.66760280e-01 -4.70509303e-01
1.82206260e-01 -1.53038931e-01 -9.71277491e-01
3.05517975e-01 8.66995157e-01 -3.93672661e-01
-2.23638733e-01 -8.12757846e-02 -9.71277491e-01
-1.24377194e-01 3.84744302e-01 9.14604907e-01
-2.72547616e-01 9.59173820e-01 7.55207314e-02
-7.00574914e-01 -5.95161009e-01 3.93672661e-01
-5.28755658e-01 -8.10803232e-01 -2.51029028e-01
5.66213706e-01 -5.38813691e-01 6.23764254e-01
2.67826142e-01 1.73550776e-01 -9.47707384e-01
8.94840200e-02 9.89368683e-01 -1.14639519e-01
-1.45244128e-01 -4.74128112e-01 -8.68393158e-01
-7.44558375e-01 -4.18632396e-01 5.19980521e-01
