-5.83681745e-01 5.95760957e-01 -5.51709084e-01
-2.83165718e-01 8.63091524e-01 4.18197567e-01
-3.45819041e-01 -8.98140580e-01 2.71575624e-01
1.92112540e-01 3.74326752e-01 9.07178363e-01
5.06805703e-01 -4.10592834e-01 7.57999289e-01
5.41492184e-01 8.02639393e-01 -2.50111840e-01
-1.01096063e-01 -9.93170668e-01 5.82453213e-02
1.74771588e-01 -3.90513450e-02 -9.83834143e-01
-4.88800291e-01 -7.50334507e-01 -4.45053186e-01
-6.26494750e-01 7.38621392e-01 2.48880292e-01
6.47652954e-01 4.81018934e-01 5.90903579e-01
-3.38687200e-01 1.53113860e-01 9.28357177e-01
6.97214253e-01 6.85196467e-01 -2.10708627e-01
-7.67410969e-01 6.24763117e-01 1.44048514e-01
-4.31280478e-01 -7.79376368e-01 4.54499866e-01
-9.34640640e-01 -1.67380891e-01 -3.13734587e-01
7.36060931e-01 6.76914038e-01 -1.37632451e-03
6.74192604e-01 -3.50547049e-01 -6.50063017e-01
2.40757288e-01 9.26367720e-01 -2.89616959e-01
8.41128269e-02 -3.56734487e-01 -9.30411476e-01
2.65401922e-01 -7.87842465e-01 -5.55757944e-01
5.07184127e-01 -3.75602895e-01 -7.75685059e-01
-2.60811703e-01 6.13338814e-01 -7.45514209e-01
6.34732180e-01 1.35143859e-01 7.60823384e-01
-2.54525040e-01 7.77763156e-01 -5.74717399e-01
-4.95286702e-01 -9.89605243e-02 -8.63074129e-01
-8.47819243e-01 -1.94341733e-01 -4.93389036e-01
-1.30343182e-01 3.56641467e-01 -9.25103519e-01
-9.55111379e-01 -9.05234309e-02 2.82075967e-01
7.42312180e-01 4.18236344e-01 -5.23498986e-01
-9.13410628e-02 8.73915960e-01 4.77416972e-01
-6.50059920e-01 7.59076541e-01 3.49768186e-02
-1.04489793e-01 -8.62685440e-01 -4.94829464e-01
5.79905553e-02 9.78240891e-01 -1.99200493e-01
-8.45226535e-01 4.70911945e-01 2.52651310e-01
-4.87177501e-01 8.30435449e-01 -2.70247080e-01
-9.91265721e-02 -3.56085593e-01 9.29181197e-01
-6.45729438e-01 1.40572842e-02 -7.63436112e-01
-7.18910165e-01 5.92424239e-01 3.63593763e-01
5.82855321e-01 6.97603775e-01 -4.16687448e-01
-1.34989928e-01 9.85005752e-01 -1.07425224e-01
-9.88642428e-01 8.40234714e-02 1.24599343e-01
6.08972541e-01 -1.80603111e-01 -7.72357089e-01
-9.13205990e-02 7.16735058e-01 -6.91339434e-01
-1.53974284e-01 5.15598987e-01 8.42881569e-01
5.56060350e-01 -5.58895652e-01 6.15169968e-01
-5.01866883e-01 1.21231647e-01 -8.56406065e-01
-6.43421968e-01 -2.73043080e-01 7.15161185e-01
-9.33960294e-01 -2.84249181e-01 2.16609895e-01
7.74256978e-01 1.03571114e-01 6.24339899e-01
-5.67284388e-01 4.01859952e-01 7.18815894e-01
-4.64899068e-01 2.76576184e-01 8.41055332e-01
9.61280860e-02 -8.69082196e-01 -4.85238359e-01
2.34875950e-01 8.09542041e-01 5.38028549e-01
-6.27023667e-01 -6.76093896e-01 3.86960581e-01
9.79107401e-01 1.18270452e-01 1.65414460e-01
-2.26347847e-01 -5.89985102e-01 -7.75038160e-01
4.42758696e-01 5.57719495e-01 -7.02077850e-01
3.16383360e-01 -9.48234213e-01 -2.74730323e-02
-9.49161107e-01 -3.14740541e-01 5.54645619e-03
3.02938034e-05 9.68543879e-03 9.99953350e-01
-2.12172945e-02 3.81243077e-01 9.24231364e-01
-6.30991580e-01 6.83487685e-01 -3.67004867e-01
-3.23715003e-01 9.46105874e-01 9.53598819e-03
2.71762501e-01 9.02288024e-01 3.34695470e-01
-5.49706387e-02 6.66794312e-01 7.43211426e-01
9.16337671e-01 -3.80209332e-01 -1.25568933e-01
-4.10667752e-01 6.66063697e-01 -6.22663360e-01
-4.62767735e-01 8.17868060e-01 3.41960026e-01
-9.63786051e-01 2.64697084e-01 -3.24107872e-02
-6.34044296e-01 4.17842340e-01 -6.50687395e-01
9.81300728e-01 1.90478125e-01 -2.77117249e-02
-7.85008280e-01 1.13689238e-01 -6.08962546e-01
4.77988189e-01 5.17019650e-01 7.10083373e-01
7.17358667e-01 -7.64835175e-02 6.92494126e-01
-8.99340997e-02 8.58819996e-01 -5.04320173e-01
-5.05375503e-01 4.66541428e-02 8.61637270e-01
4.07655686e-01 -6.89876934e-01 5.98237540e-01
3.65507260e-01 -1.78711926e-02 -9.30636898e-01
8.44369282e-01 4.67338247e-01 2.61985041e-01
-6.62912423e-01 -7.31449307e-01 1.59778136e-01
9.85045702e-01 4.77926758e-02 -1.65535121e-01
-8.88540711e-01 4.33587582e-01 -1.49985433e-01
7.24936754e-01 2.98905707e-01 6.20582771e-01
9.12716629e-02 1.98735904e-01 9.75794006e-01
-7.18614513e-01 3.01378333e-01 6.26708417e-01
6.87687341e-01 -7.18199543e-01 -1.06193372e-01
-4.17260585e-02 -5.29123806e-01 8.47518647e-01
7.32693614e-01 2.35516491e-01 -6.38507919e-01
-9.61438893e-01 3.34377941e-02 -2.72975890e-01
-7.75087170e-01 3.14260976e-01 -5.48159085e-01
4.46739331e-02 2.63463058e-01 -9.63634134e-01
4.13937987e-01 1.85829216e-01 -8.91135619e-01
9.48942745e-01 -9.54791570e-02 -3.00653421e-01
4.72161797e-01 1.59299745e-01 8.66999243e-01
6.92845604e-01 -6.65635830e-01 2.77300485e-01
2.19777400e-01 1.55721675e-01 -9.63041152e-01
2.50486292e-01 -9.51040350e-01 1.81053094e-01
-3.19749191e-01 -7.23966689e-01 6.11255553e-01
8.02318640e-01 3.91843216e-01 4.50271585e-01
7.85438044e-01 -2.33629563e-01 5.73154242e-01
5.42478309e-01 -7.94900508e-01 2.71757357e-01
-5.89465416e-01 -4.27192645e-01 -6.85591957e-01
-6.47996449e-01 -5.91997989e-02 7.59338963e-01
4.46026355e-01 8.59985389e-01 2.47962541e-01
-3.77803210e-01 4.66020784e-01 8.00055533e-01
-5.63302989e-01 6.83954868e-01 4.63566993e-01
-3.39325732e-01 2.47575401e-02 -9.40342591e-01
-4.67851752e-01 -3.18668736e-01 -8.24356903e-01
-4.97611759e-01 8.64322348e-01 -7.29925335e-02
-7.32468951e-01 5.02323168e-01 -4.59520450e-01
8.54272092e-01 4.09958379e-01 -3.19615033e-01
5.20234712e-01 -8.51237725e-01 -6.89320518e-02
-9.95362989e-01 6.09415000e-02 -7.44134132e-02
7.21211611e-02 9.73583292e-01 2.16641018e-01
5.83722643e-01 8.10204394e-01 -5.32595192e-02
4.51955638e-01 -2.28598185e-01 8.62252975e-01
-8.41206446e-01 -3.66744153e-01 -3.97328066e-01
-1.56702880e-01 -9.53723173e-01 2.56626620e-01
5.91345047e-01 7.28656073e-01 3.45501838e-01
4.21285130e-03 6.18200867e-02 -9.98078129e-01
8.87685277e-01 -4.55654308e-01 6.62990374e-02
2.89771545e-01 5.32334726e-01 7.95394505e-01
7.69532233e-02 5.40064443e-01 8.38098195e-01
5.62303505e-02 -1.89767601e-01 9.80217922e-01
-9.89687748e-01 -1.18147316e-01 8.09835992e-02
-5.52236472e-01 -6.02650140e-01 -5.76061915e-01
4.25164731e-01 -6.76131812e-01 -6.01732168e-01
7.10598661e-01 -6.35777027e-01 -3.01394181e-01
-1.17934581e-01 -7.91108758e-01 6.00199412e-01
7.75834119e-01 -6.25984832e-01 7.89050942e-02
4.39739714e-01 3.80251205e-01 -8.13657009e-01
-3.01428304e-01 4.37120378e-01 -8.47387461e-01
7.91625034e-02 4.53199971e-01 -8.87886401e-01
5.85236142e-01 2.09942979e-01 -7.83213055e-01
6.91050175e-01 -5.62852409e-01 4.53484790e-01
9.76157877e-01 -1.79990068e-01 -1.21328756e-01
8.68342877e-01 -1.26297750e-01 -4.79614896e-01
-1.67173511e-01 -7.40582370e-01 -6.50838671e-01
3.63346553e-01 -5.55608949e-01 7.47849827e-01
-7.61430659e-01 -9.18642227e-02 -6.41703325e-01
2.41334584e-01 -2.22454698e-01 -9.44601264e-01
5.63538780e-01 -5.27100816e-01 -6.36073621e-01
9.70395812e-01 -1.13055572e-01 2.13428671e-01
3.97864826e-01 9.04025367e-01 -1.56336828e-01
-8.86458495e-01 4.60050269e-01 5.04339537e-02
8.56420593e-01 -4.30422188e-02 5.14482727e-01
1.11406832e-01 -9.93534240e-01 2.18946570e-02
-4.87364039e-01 -8.68621919e-01 8.92893626e-02
3.71945016e-01 -8.64976929e-01 3.36857999e-01
9.21389265e-02 9.06432932e-01 4.12176141e-01
9.20141835e-01 3.78547429e-01 -1.00207393e-01
-6.53247525e-01 7.37821415e-01 -1.69957684e-01
-6.55388782e-01 2.21832866e-01 -7.21979457e-01
9.64172678e-01 -2.58092953e-01 6.13231321e-02
2.58940619e-01 -2.05975602e-01 9.43676225e-01
-1.84964825e-01 -9.30797800e-01 -3.15284028e-01
-8.40591609e-01 1.85875491e-01 5.08778060e-01
-7.77207486e-01 -6.28155941e-01 3.69912756e-02
3.75481154e-01 -5.43436225e-01 -7.50793966e-01
-4.57556693e-01 7.64133415e-01 -4.54687191e-01
-3.00119026e-01 -9.51101995e-01 7.30356077e-02
5.34736313e-01 -7.15117095e-01 4.50184645e-01
1.92471510e-02 -1.67634878e-01 -9.85661085e-01
1.53243236e-01 -5.22661224e-01 -8.38654893e-01
-3.85041175e-01 7.41425797e-01 5.49572705e-01
-4.96161089e-01 3.22893700e-01 -8.05954397e-01
4.25561073e-01 -8.02245461e-01 -4.18689736e-01
-1.38761842e-01 -2.86590445e-01 -9.47950788e-01
-7.59819768e-01 6.71588102e-02 6.46655217e-01
-3.15879100e-01 9.28321998e-01 -1.96054192e-01
1.11590266e-01 -3.76927536e-01 9.19496731e-01
-8.85107386e-01 -1.11459914e-04 -4.65385427e-01
-5.66985081e-01 -7.86032647e-01 -2.46334275e-01
-4.02549850e-01 -5.65292634e-01 7.19998830e-01
-8.76966344e-01 -2.23657446e-01 4.25331365e-01
-7.74979757e-01 5.74322032e-01 -2.63740275e-01
9.99077628e-01 -3.35334032e-02 2.68450030e-02
-1.64521657e-01 -6.88797720e-02 -9.83965223e-01
-7.80958350e-01 4.16015804e-01 4.65868856e-01
-3.00070675e-01 -8.21238974e-01 -4.85308511e-01
1.64370440e-01 -5.49417121e-01 8.19221803e-01
-2.52563485e-01 3.44682364e-01 9.04104847e-01
8.62383661e-01 1.90156455e-01 4.69186568e-01
4.28081442e-01 9.02442725e-01 4.84049526e-02
8.24207419e-01 5.43335889e-01 -1.59588861e-01
-9.40933830e-01 1.05461982e-01 3.21745594e-01
-6.26374878e-01 1.76147036e-01 7.59359070e-01
-3.59301890e-01 -8.29001131e-02 9.29532064e-01
7.34924998e-01 5.63960524e-01 -3.76608412e-01
8.19108847e-01 -5.60958409e-01 -1.19949357e-01
-9.82568461e-01 -1.42296123e-01 -1.19624124e-01
-6.27209120e-01 -2.12206679e-01 -7.49383823e-01
5.82042554e-01 -6.68794305e-01 -4.62538404e-01
-5.26356455e-01 -6.33206788e-01 5.67448980e-01
-4.20547402e-01 -5.20800247e-01 -7.42904177e-01
-1.17577873e-01 9.43301351e-01 -3.10413841e-01
8.11859204e-01 -3.90941547e-01 4.33648400e-01
7.67615447e-02 9.10087423e-01 -4.07243799e-01
-1.16061909e-01 2.08105698e-01 9.71196071e-01
2.90838466e-01 -8.12109162e-01 5.05858802e-01
-9.45020439e-01 2.84837477e-01 1.60632006e-01
-4.64754630e-01 -3.86231526e-01 7.96761311e-01
2.14123211e-01 -7.00157544e-01 6.81125526e-01
7.41505091e-01 6.37628609e-01 2.08806885e-01
2.43188468e-01 8.27837496e-01 -5.05513249e-01
-9.45549203e-01 2.33574217e-01 -2.26667815e-01
-1.33228642e-02 -6.30078390e-01 -7.76417373e-01
-1.66910621e-01 1.55390284e-01 -9.73649752e-01
8.22518362e-01 5.92627750e-02 -5.65643088e-01
9.19139087e-01 8.38102975e-02 -3.84915568e-01
8.17479187e-01 -5.11896266e-01 2.63991720e-01
3.89470870e-01 -8.95038351e-01 -2.17301743e-01
-6.58708500e-01 -6.51049913e-01 -3.77142929e-01
-3.81294906e-01 -8.74340647e-01 -3.00238059e-01
-1.88331572e-01 7.66589781e-01 6.13897913e-01
-4.90627221e-01 8.61013003e-01 1.33940852e-01
-1.91047909e-01 -6.39785671e-01 7.44429844e-01
5.61912698e-01 -5.15827771e-02 8.25587364e-01
3.86074444e-01 -2.77815653e-02 9.22049717e-01
-1.15119260e-01 9.49089920e-01 2.93214834e-01
-7.28949241e-01 -6.63912904e-01 -1.66890273e-01
6.82901408e-01 -4.05405582e-01 6.07695258e-01
-8.85698807e-01 1.94281266e-01 -4.21652619e-01
-7.67743364e-01 -5.83922158e-01 2.63827295e-01
-8.88556591e-01 2.97224496e-01 3.49461868e-01
-7.10734098e-01 -4.95967403e-01 -4.98871487e-01
-4.41095638e-01 -8.91158321e-01 -1.06168716e-01
-2.47568385e-01 -9.60835507e-01 -1.24521595e-01
9.39343784e-01 2.36820789e-01 -2.48092587e-01
1.45831198e-02 -6.88423322e-01 7.25163257e-01
6.31130748e-01 -7.70709899e-01 8.76459454e-02
-3.14343672e-01 -2.86377162e-01 9.05083730e-01
-7.81426315e-02 -4.71131155e-01 -8.78594950e-01
7.10031109e-01 -5.07356978e-01 -4.88309156e-01
6.94237716e-01 3.22924315e-02 -7.19021294e-01
2.62431350e-01 6.90971142e-01 -6.73563611e-01
-3.33749202e-01 2.43441224e-01 -9.10684753e-01
4.36488493e-01 -2.05058040e-01 -8.76030405e-01
8.49383380e-01 2.56850956e-01 -4.61059632e-01
-3.25322617e-01 -1.97110033e-01 -9.24830879e-01
-8.02788251e-01 -5.23094671e-01 -2.86185953e-01
2.12673235e-02 -9.47878780e-01 -3.17921898e-01
6.03894824e-01 3.98893062e-01 -6.90069078e-01
2.48102195e-01 -9.00116626e-01 -3.58101073e-01
9.04089430e-01 -2.89519966e-01 -3.14327388e-01
-7.06684822e-01 -5.20803477e-01 4.78915675e-01
4.29153168e-01 7.10513625e-01 -5.57671461e-01
-1.51090366e-01 -1.70638818e-01 9.73680950e-01
-8.39497223e-01 -4.13622384e-01 3.52364195e-01
8.59976303e-02 6.33729335e-01 -7.68759132e-01
6.00458881e-01 5.64597486e-01 -5.66284972e-01
-4.21865712e-02 -9.90099206e-01 -1.33883275e-01
-1.36498001e-01 9.85791978e-01 9.78844548e-02
-9.52565326e-02 5.42111627e-01 -8.34889263e-01
6.26039997e-01 -2.49240865e-01 7.38887206e-01
8.05960254e-01 -3.25677600e-01 -4.94331073e-01
7.54523398e-01 -1.52891477e-01 -6.38215769e-01
7.10925639e-01 5.72320202e-01 4.08698928e-01
-5.22216345e-01 -8.06328195e-01 2.77714348e-01
-4.74759245e-01 5.89158769e-01 6.53830850e-01
-1.97351456e-01 2.36947753e-02 9.80046534e-01
5.43601965e-01 6.45741794e-01 5.36203993e-01
1.96118126e-01 -5.96410701e-03 9.80562523e-01
4.41292777e-01 -8.89054225e-01 1.21839073e-01
-2.39591825e-01 -8.60918511e-01 4.48793813e-01
-7.87757833e-01 6.12840076e-01 -6.21533678e-02
-3.12158704e-01 9.24762617e-01 2.17646162e-01
8.24335254e-01 -4.70940886e-01 -3.14145466e-01
-4.62118693e-01 5.04298567e-01 -7.29470922e-01
4.17669736e-01 7.89255538e-01 4.50141788e-01
2.54860625e-01 9.57425406e-01 1.35580481e-01
8.99265650e-01 -1.95119163e-01 3.91473224e-01
3.90824099e-01 3.56645473e-01 8.48564130e-01
8.52274756e-01 5.20162000e-01 5.53151407e-02
5.64537799e-01 -7.80547504e-01 -2.68410120e-01
9.16211097e-01 2.68773648e-01 2.97185024e-01
9.34810865e-01 3.37931582e-01 1.09232477e-01
4.06198261e-02 7.93006491e-01 6.07857140e-01
-8.54304020e-01 3.86322443e-01 -3.47732675e-01
-3.91298016e-02 -9.05710262e-01 4.22088693e-01
5.03479313e-02 9.98633769e-01 1.39550594e-02
1.74738147e-01 -9.68733067e-01 -1.76136079e-01
1.71161625e-01 6.80169143e-01 7.12792766e-01
-8.77767080e-01 -2.09619678e-02 4.78628001e-01
-3.68789193e-01 -6.85750241e-01 -6.27487894e-01
9.37330004e-01 3.82778512e-02 3.46335877e-01
2.15278386e-01 -6.67104155e-01 -7.13181479e-01
-8.64552299e-01 -4.95415242e-01 -8.43354923e-02
-2.58826483e-01 -4.71921624e-01 8.42792640e-01
-7.60035456e-01 -3.42727609e-01 5.52162666e-01
3.65208223e-01 6.77451182e-01 6.38500540e-01
6.06019541e-01 7.82212615e-01 1.44512141e-01
5.68478088e-01 3.35268128e-01 7.51284689e-01
-9.18333432e-01 -3.40167177e-01 -2.02358917e-01
9.11348675e-01 -3.31330470e-01 2.44264754e-01
-8.74925345e-01 -4.65527068e-01 1.33377942e-01
-2.92063701e-01 8.72424625e-01 -3.91883445e-01
-6.43327117e-01 5.18256025e-01 5.63506798e-01
-6.22610420e-01 -7.81450255e-01 -4.11312403e-02
-2.80317404e-01 6.29817602e-01 7.24397231e-01
-7.32805783e-01 -3.17762592e-01 -6.01682427e-01
3.99046235e-01 8.31992004e-01 -3.85422948e-01
8.69208444e-02 -8.21302450e-01 5.63833555e-01
5.39887534e-01 5.30550349e-03 -8.41720564e-01
-5.97953368e-01 -4.63671936e-01 6.53804400e-01
3.11353266e-01 -3.91471369e-01 -8.65915486e-01
4.34312676e-02 -9.74527293e-01 2.20025972e-01
-7.78389179e-01 -1.44363074e-01 6.10957540e-01
2.67450675e-01 5.26884958e-01 -8.06760032e-01
3.14560252e-01 -3.91270669e-01 8.64847000e-01
4.39265417e-02 -7.63442452e-01 -6.44380763e-01
2.31121146e-01 9.70434558e-01 -6.95632753e-02
-2.86954256e-01 -4.08644422e-01 -8.66410184e-01
2.89133075e-01 1.81529560e-01 9.39920070e-01
2.55285977e-01 3.44345492e-01 -9.03468174e-01
1.63761064e-01 -9.12301008e-01 3.75353826e-01
7.84291459e-02 7.88693621e-01 -6.09762433e-01
-5.05882169e-01 -1.86985157e-01 8.42092512e-01
