-3.60022492e-01 3.15850156e-01 -8.77850776e-01
-1.59250926e-01 -3.83408885e-01 -9.09745755e-01
-3.41713080e-01 8.56548155e-01 3.86725011e-01
-3.51283268e-02 6.06041246e-01 7.94656621e-01
4.77219874e-02 -9.26042144e-01 3.74393068e-01
-6.22539979e-01 -2.70295390e-01 7.34428556e-01
-8.36214346e-01 -3.87570658e-01 -3.87989163e-01
7.44542899e-01 3.64748870e-01 -5.59118066e-01
-5.05619578e-01 -7.63949235e-01 4.00914017e-01
-1.87513262e-01 1.16340238e-01 9.75348044e-01
-3.30430691e-03 9.97656915e-01 -6.83232043e-02
-4.88672283e-01 8.03227349e-01 -3.40623057e-01
7.03760601e-01 2.10554140e-01 -6.78518320e-01
-1.86355272e-01 -7.74215199e-01 6.04866977e-01
-4.68524583e-01 8.53717398e-01 2.27266731e-01
7.71428299e-02 -4.15425969e-01 9.06350415e-01
-9.02813144e-01 4.04077978e-01 1.47136820e-01
4.65351976e-01 4.06561418e-03 -8.85116145e-01
5.86321242e-01 -3.32972300e-01 -7.38482878e-01
8.59147277e-01 4.39146239e-01 -2.62707599e-01
9.48342924e-01 2.86912108e-01 1.35374173e-01
-1.56546634e-01 -1.15595639e-01 9.80882897e-01
-7.57582431e-01 -3.00950633e-01 5.79222411e-01
-6.00816231e-01 -4.53430370e-01 6.58347908e-01
-2.82237066e-01 6.64412726e-01 -6.92023749e-01
7.29636484e-01 6.03676461e-01 3.21253752e-01
5.57019505e-01 -8.08960075e-01 -1.87919938e-01
-2.75453298e-01 -4.57203364e-01 8.45630913e-01
7.86642864e-02 -7.43086577e-01 -6.64556517e-01
3.63919009e-01 4.51271734e-01 8.14810385e-01
3.91159574e-01 3.67483309e-01 -8.43770833e-01
-8.31071696e-01 4.19005170e-01 3.65724364e-01
-5.41460862e-01 2.44582020e-01 -8.04362793e-01
7.51041496e-01 5.09869835e-01 -4.19485491e-01
-8.15903104e-01 7.91379549e-02 5.72747519e-01
-6.37107353e-01 -1.10769233e-01 -7.62774404e-01
1.35052081e-01 -5.84358047e-01 8.00179774e-01
-6.86957884e-01 3.04324530e-01 -6.59905434e-01
-9.27253315e-01 2.49799941e-01 2.78929039e-01
6.34826308e-01 -5.96636972e-01 -4.90938348e-01
1.46341792e-01 1.03766262e-01 -9.83776504e-01
-3.80266031e-01 7.25156486e-01 5.74060012e-01
-2.96411638e-01 -2.56257266e-01 9.20039736e-01
-7.73205987e-02 9.88491145e-01 1.30019889e-01
-7.81250193e-01 -6.35212158e-02 -6.20977944e-01
-6.47599649e-01 -7.61965825e-01 4.94128750e-03
1.79607922e-01 1.50380775e-01 9.72176137e-01
-1.05183361e-01 -1.84809787e-01 -9.77129467e-01
9.46893252e-01 2.17310423e-01 -2.36998790e-01
-3.28786697e-01 4.99259743e-01 -8.01647181e-01
9.61366243e-01 -8.81769206e-02 2.60767049e-01
3.66124370e-01 7.40604754e-02 9.27614056e-01
2.17821718e-01 -9.65684227e-01 -1.41453753e-01
-5.14622438e-01 7.44882995e-01 4.24631797e-01
4.54155263e-01 8.08495686e-01 -3.74267338e-01
-9.79975519e-01 7.17694841e-02 1.85735202e-01
4.92473905e-01 6.79933125e-01 5.43285450e-01
8.23375539e-01 -5.28861030e-01 -2.05813375e-01
-3.04980292e-01 -9.49531622e-01 7.33382996e-02
8.78132779e-01 -1.30337488e-01 4.60320314e-01
-6.96300461e-01 1.03905446e-01 -7.10189691e-01
2.90014422e-01 -4.48150760e-01 8.45608235e-01
-9.66103477e-01 2.06100117e-02 -2.57331964e-01
9.75827706e-01 -1.87026828e-01 -1.13053186e-01
-7.51003310e-01 5.27138091e-01 -3.97641676e-01
6.87517865e-01 -6.60289886e-01 -3.02220356e-01
-5.48617832e-01 2.56637437e-01 7.95710819e-01
-7.77034051e-03 2.76369947e-02 9.99587894e-01
5.88908238e-02 -9.79863247e-01 1.90791903e-01
-8.69449032e-01 -1.17336137e-01 4.79886827e-01
-2.45721337e-01 -3.80155555e-02 -9.68594788e-01
9.70870625e-01 -2.19206027e-01 9.67409483e-02
6.06834992e-01 -2.35396926e-01 7.59170460e-01
-5.46955840e-01 4.95276483e-02 -8.35695148e-01
8.17207364e-01 2.28391990e-01 5.29158285e-01
3.50380229e-01 -1.24458989e-01 9.28301592e-01
-7.57430043e-01 -1.05444944e-01 6.44346024e-01
-2.11991730e-01 -9.33503675e-01 -2.89192044e-01
9.36814754e-02 -1.14992331e-01 -9.88939083e-01
5.37924117e-01 -5.14774303e-01 -6.67566867e-01
-8.90068124e-01 -1.07120655e-02 -4.55702098e-01
-4.86140017e-01 -8.72942282e-01 4.05142491e-02
-2.11063944e-02 8.30660645e-01 -5.56377494e-01
-1.62658640e-01 -9.81842235e-01 -9.76203162e-02
-4.97704276e-02 3.22445575e-02 -9.98239943e-01
-9.08088331e-01 1.89043686e-01 -3.73681911e-01
-5.46463040e-01 8.24234138e-01 -1.48374875e-01
5.40422862e-01 3.33184270e-01 7.72612877e-01
-7.82301876e-01 -6.22002110e-01 -3.34457887e-02
-8.66795016e-01 -4.82361810e-01 1.26470523e-01
-9.82228600e-01 -1.37503906e-01 -1.27751297e-01
-2.18423892e-01 5.09588532e-01 8.32231901e-01
-7.88291351e-02 -5.34906382e-01 8.41226623e-01
7.61133811e-01 -1.33166695e-02 -6.48457772e-01
3.35509227e-01 -8.24619459e-01 -4.55453004e-01
-2.60272711e-01 -7.11014042e-01 -6.53236844e-01
1.85466409e-01 -7.28042204e-01 6.59968191e-01
4.44011049e-01 -1.99824434e-01 -8.73455393e-01
7.82943468e-01 -4.79863187e-01 -3.95892871e-01
6.36766233e-01 7.53407347e-01 1.64026043e-01
-4.00752287e-01 -8.82928276e-01 2.44616067e-01
-6.17712637e-01 -7.57335956e-02 7.82749082e-01
-3.92742648e-01 3.93630986e-01 8.31148336e-01
-3.22245460e-01 -8.42817168e-01 4.31067007e-01
-5.17329884e-01 4.27879713e-01 -7.41139772e-01
-2.32114250e-01 -5.47001613e-01 -8.04309092e-01
1.49380208e-01 6.79412353e-01 7.18389384e-01
-6.52256512e-01 4.86854361e-01 -5.80976502e-01
5.62094669e-01 -7.90675010e-01 2.42659620e-01
5.25271723e-01 5.16542564e-01 6.76219166e-01
-3.04686539e-01 -2.48735682e-01 -9.19400398e-01
9.98793413e-01 -3.01239380e-02 3.87786762e-02
-5.63314043e-01 -6.21304651e-01 5.44664369e-01
-7.15187684e-01 -4.35463633e-01 -5.46698295e-01
-9.63186972e-01 2.08655266e-01 -1.69510984e-01
5.87340766e-01 3.78473243e-01 -7.15393417e-01
9.05777249e-01 -3.98348814e-01 1.44519928e-01
6.16388227e-01 -1.41290587e-01 -7.74662694e-01
-6.79312797e-01 1.04349190e-01 7.26392244e-01
2.17694806e-01 -8.50017536e-01 4.79667144e-01
9.03178834e-01 2.61440965e-01 3.40464016e-01
-2.38277801e-01 -6.31467314e-01 7.37884851e-01
8.04950758e-01 -5.62956093e-01 1.87444037e-01
6.97582559e-01 -7.08868468e-01 1.04330775e-01
-6.31167824e-01 7.29916045e-01 2.62390734e-01
9.84702253e-01 1.35426038e-02 -1.73716678e-01
-9.70731711e-01 2.33682353e-01 5.54314254e-02
-4.72333185e-01 5.96862117e-01 -6.48580066e-01
-8.12787532e-01 5.46656324e-01 -2.01352348e-01
-1.77340013e-02 4.33806074e-01 9.00831413e-01
4.49691210e-01 5.26927616e-01 -7.21196115e-01
3.97591099e-03 -9.74126597e-01 -2.25971618e-01
4.02701798e-01 8.29479557e-01 3.87031491e-01
-5.57173668e-01 6.00034034e-01 5.74034886e-01
-2.96336598e-01 8.79287843e-01 -3.72875465e-01
-3.60881286e-01 9.14125093e-01 -1.84766407e-01
9.26505204e-01 6.77428788e-02 -3.70132850e-01
-2.65715968e-02 -6.93110847e-01 7.20342018e-01
-1.15304046e-01 -3.41890569e-01 9.32639602e-01
-3.61133515e-01 -9.23124773e-01 -1.32003679e-01
-8.16225457e-01 1.54771881e-01 -5.56616337e-01
6.25757366e-01 5.70175364e-02 -7.77930681e-01
-3.33461514e-01 -2.49115118e-02 9.42434735e-01
8.33317415e-01 1.43791055e-01 -5.33765331e-01
2.42665947e-01 -9.28400573e-01 2.81402037e-01
-2.19484764e-01 8.05465351e-01 -5.50500373e-01
9.38994442e-01 -1.43502310e-01 -3.12563919e-01
-8.25875206e-01 -2.30256553e-01 -5.14696810e-01
3.38917751e-01 1.66273017e-01 -9.26006160e-01
6.78404494e-01 -1.33854442e-02 7.34566513e-01
-2.17758564e-01 9.75794501e-01 -2.01186677e-02
-6.72144513e-01 -6.45398423e-01 3.62883110e-01
2.78020389e-01 9.34142473e-01 2.23787425e-01
-5.62594230e-01 -4.41281946e-01 -6.99112938e-01
2.14058692e-01 9.69553459e-01 -1.18925129e-01
1.55552898e-01 -6.03849396e-01 -7.81773624e-01
1.32898447e-01 8.86810360e-01 -4.42610138e-01
7.55541081e-01 -1.75085789e-01 6.31270659e-01
-6.92493214e-01 -2.75415388e-01 -6.66783497e-01
6.94734544e-01 1.89525669e-01 6.93846787e-01
1.72750102e-01 -5.51574361e-02 9.83420174e-01
-1.92702913e-01 1.79168740e-01 -9.64760994e-01
8.84067239e-01 4.62572294e-01 6.67138755e-02
5.03916465e-02 -3.18999721e-01 -9.46414392e-01
5.39209888e-01 8.42146333e-01 -6.36642840e-03
4.08167536e-01 -3.92556697e-01 -8.24195848e-01
3.45843877e-01 6.18947602e-01 7.05191302e-01
-8.87483333e-01 -4.55583116e-01 -6.94161183e-02
1.45821819e-03 2.49464224e-01 -9.68382608e-01
6.54690405e-02 9.63351328e-01 -2.60127487e-01
2.17514185e-01 -2.75714337e-01 9.36306415e-01
-1.64913974e-01 3.76849285e-01 -9.11475333e-01
2.72494745e-02 -2.02364237e-01 9.78931401e-01
-4.08602331e-01 7.48886528e-01 -5.21739360e-01
2.54665622e-01 -2.50454083e-01 -9.34033345e-01
-3.93778491e-03 -5.02892181e-01 -8.64340584e-01
7.08424618e-01 -6.98239571e-01 -1.02940970e-01
2.05001993e-01 8.90536717e-01 4.06099734e-01
-4.04844182e-01 5.65410090e-01 7.18618125e-01
1.42444785e-01 7.56656523e-01 -6.38105724e-01
3.55548908e-01 -5.69649580e-01 -7.41002677e-01
1.98410277e-01 3.14366986e-01 -9.28335043e-01
5.01041559e-02 -9.98362509e-01 -2.76320866e-02
-7.95903440e-02 7.07168746e-01 -7.02549970e-01
9.86411014e-01 1.62290351e-01 -2.55800805e-02
-4.06621096e-01 -8.51959174e-01 -3.29888545e-01
7.88578715e-01 4.18471611e-01 4.50581922e-01
-7.23108383e-01 -4.83040602e-01 4.93748259e-01
8.58678033e-02 6.16308969e-01 -7.82808241e-01
2.36392009e-01 -9.69061556e-01 7.09932795e-02
-6.87491992e-01 5.99456328e-01 4.09885718e-01
-4.15391734e-01 -5.87237833e-01 -6.94695996e-01
4.31479464e-01 -2.89576169e-01 8.54383712e-01
-3.63271222e-01 2.03599728e-01 9.09165104e-01
2.98785207e-01 6.53805542e-01 -6.95172150e-01
8.63857754e-01 2.97550387e-01 -4.06463411e-01
2.44390960e-01 5.01462715e-01 -8.29944017e-01
7.29187691e-01 6.34707334e-01 -2.55793660e-01
-5.80935242e-01 8.12066431e-01 5.53290493e-02
-2.03596257e-01 8.23727714e-01 5.29169187e-01
2.79965277e-01 9.07940086e-01 -3.11869361e-01
-7.85140157e-02 -6.56640776e-01 -7.50106298e-01
8.00125888e-01 -3.24863780e-01 5.04244284e-01
-9.19650962e-01 3.83896605e-01 -8.28573305e-02
-8.13938422e-01 -5.28949562e-01 -2.40245496e-01
-7.94518791e-01 5.59948209e-01 2.34941306e-01
5.85852147e-01 7.80822400e-01 -2.17006827e-01
-9.18153266e-01 7.18624454e-02 3.89654738e-01
-2.56174434e-01 -8.43844910e-01 -4.71489033e-01
-7.08099737e-01 6.98543228e-01 -1.03108204e-01
9.74563375e-01 1.01769318e-01 1.99671159e-01
-2.88093824e-01 9.40879188e-01 1.78176589e-01
7.03850095e-01 -4.14491452e-01 -5.76881353e-01
-5.41563403e-02 7.56604231e-01 6.51625655e-01
5.18906360e-01 2.17857683e-01 -8.26603545e-01
3.05984515e-01 8.00252217e-01 -5.15721099e-01
-8.79600812e-01 3.75560833e-01 -2.91986742e-01
-7.41835812e-01 -6.48430233e-01 1.70936807e-01
6.95209259e-01 7.17063850e-01 -5.00192081e-02
6.59774211e-01 -3.90560216e-01 6.41997765e-01
-3.77323937e-01 1.16216696e-01 -9.18760124e-01
4.62735007e-01 -6.80582707e-01 -5.68053072e-01
7.46133289e-01 -2.20688000e-01 -6.28157447e-01
9.02034001e-01 -3.41936620e-01 -2.63465468e-01
-9.15392737e-02 -8.08462347e-01 -5.81386710e-01
-4.28494415e-01 -5.55470037e-01 7.12633760e-01
8.53206880e-01 4.49843563e-01 2.63965176e-01
4.64383972e-01 6.81782286e-01 -5.65260058e-01
-4.43799174e-02 -9.10699217e-01 -4.10680960e-01
-8.60207678e-01 -3.09547878e-01 4.05245511e-01
-4.34203767e-01 -1.02882633e-01 -8.94920387e-01
4.17972214e-01 8.92940425e-01 -1.67197059e-01
5.78184541e-01 7.31491828e-01 3.61415074e-01
-1.11592606e-01 -9.88596973e-01 1.01118091e-01
-9.27477587e-01 -3.05356480e-01 2.15740129e-01
1.21779098e-01 8.10923834e-01 5.72338231e-01
-9.08951983e-02 9.15995177e-01 -3.90754816e-01
1.40153686e-01 9.87049247e-01 7.80320089e-02
2.86402612e-02 -8.22413507e-01 5.68170080e-01
-9.23756291e-01 -1.72832059e-01 -3.41766184e-01
-7.14491280e-01 4.47263257e-01 5.38012562e-01
8.42439056e-01 -2.88969817e-01 -4.54744801e-01
-4.65035523e-01 -1.68264575e-01 8.69154583e-01
-9.91390331e-03 2.38793419e-01 9.71019668e-01
-1.27298592e-01 -8.85592227e-01 4.46680117e-01
-1.56752890e-01 9.64804057e-01 -2.11139942e-01
-1.90956577e-01 -9.43056206e-01 2.72364330e-01
6.85830723e-01 -5.30164224e-01 4.98560662e-01
5.24761008e-01 -7.00022536e-02 8.48366406e-01
6.88689922e-01 -6.47287729e-01 3.26688799e-01
-5.69221902e-01 4.34056101e-01 6.98270311e-01
-3.84029579e-01 -7.14513470e-01 5.84801939e-01
4.00492141e-01 -9.14299030e-01 -6.05363583e-02
2.12467767e-01 -4.37578612e-01 -8.73717846e-01
-2.28520344e-01 6.72388703e-01 7.04039059e-01
-1.98344457e-01 3.26840373e-01 9.24031692e-01
3.72846811e-01 -7.37035606e-01 5.63706413e-01
9.08455720e-01 -2.76451149e-01 3.13501199e-01
5.26675798e-01 -5.87302532e-01 6.14564204e-01
4.01980479e-01 -8.36973735e-01 3.71332639e-01
-8.39490866e-01 2.56117543e-01 4.79227501e-01
3.51870550e-01 9.35565233e-01 3.00506580e-02
6.20140691e-02 9.59858819e-01 2.73539200e-01
-4.12467168e-01 9.10865703e-01 1.38992630e-02
-4.24754252e-01 -7.37254958e-01 -5.25395408e-01
8.11331962e-01 3.00185115e-02 5.83814143e-01
7.75312030e-01 6.20156331e-01 1.19565604e-01
-5.67922341e-01 -7.33275754e-01 -3.73861423e-01
2.86207993e-01 -4.77812669e-02 -9.56975280e-01
-9.97971803e-01 5.11735941e-02 -3.78680597e-02
6.52269622e-01 5.63086718e-01 5.07421397e-01
-8.13061201e-01 -4.89656340e-01 3.14911858e-01
3.69809172e-01 2.67409712e-01 8.89793646e-01
4.69905162e-01 8.60671108e-01 1.96042614e-01
-9.48305856e-01 -1.17436640e-01 2.94831144e-01
5.44289858e-01 -7.08014480e-01 4.49961147e-01
-5.00383614e-01 6.51258245e-02 8.63351136e-01
3.80753954e-01 -8.85468975e-01 -2.66406394e-01
-8.00990933e-01 3.49199001e-01 -4.86285240e-01
5.23650620e-01 -7.59845639e-01 -3.85260388e-01
9.23532994e-01 -3.78358502e-01 -6.27039381e-02
-3.80793484e-01 -4.17468441e-01 -8.25055868e-01
6.08181633e-01 6.76112379e-01 -4.15915380e-01
4.11639112e-01 -8.97842788e-01 1.56310257e-01
-5.87794538e-01 6.52773905e-01 -4.77894273e-01
5.42384671e-01 1.37542892e-01 8.28794574e-01
8.23336823e-01 5.59094618e-01 -9.76128766e-02
6.14133497e-01 5.36269096e-01 -5.79011363e-01
9.31546318e-01 3.51957260e-01 -9.13587910e-02
6.81865946e-01 3.82301547e-01 6.23621245e-01
-9.56948129e-01 -2.89911162e-01 1.42410370e-02
-4.56205492e-01 -3.70701165e-01 8.08985919e-01
1.78456807e-01 -9.26005405e-01 -3.32668858e-01
-6.61672323e-01 6.89438017e-01 -2.94727152e-01
-8.40353157e-01 5.42008758e-01 5.71088820e-03
8.64828611e-01 -8.55528820e-02 -4.94723928e-01
-9.89421060e-01 -1.10766753e-01 9.36879460e-02
-5.74233967e-01 -6.00093048e-01 -5.56906554e-01
1.78975057e-01 3.44821497e-01 9.21447530e-01
3.42369074e-01 -6.01459055e-01 7.21825040e-01
5.62264838e-01 -8.26710669e-01 2.02193470e-02
-9.22931957e-01 -3.21435437e-01 -2.11841609e-01
9.12469051e-01 6.75862388e-02 4.03524222e-01
-7.12286385e-01 2.79590660e-01 6.43799034e-01
-5.39095740e-01 -8.25198663e-01 -1.68595987e-01
8.30726678e-01 -5.56587326e-01 -1.02091220e-02
3.99057429e-02 4.45129789e-01 -8.94575913e-01
-6.89324236e-01 -6.94020321e-01 -2.07772476e-01
-1.89606509e-02 8.88906350e-01 4.57694857e-01
3.13999121e-01 7.64365898e-01 5.63158915e-01
-7.26852349e-01 6.80327997e-01 9.40145554e-02
1.69489175e-01 5.22995129e-01 8.35313527e-01
-7.07546935e-01 -5.82023372e-01 -4.00783514e-01
-5.85082180e-01 -7.83358533e-01 2.09833107e-01
-1.27864354e-01 5.54195219e-01 -8.22506746e-01
4.91391069e-01 -4.44375834e-01 7.49043095e-01
1.30247677e-01 -8.51780179e-01 -5.07451820e-01
-1.55521429e-01 9.32835609e-01 3.25006730e-01
2.77146077e-01 -7.26148760e-01 -6.29205050e-01
8.15708446e-01 -4.56343949e-01 3.55486044e-01
-5.17859364e-01 -2.71112075e-01 -8.11369529e-01
