2.45093311e-01 -3.41353325e-01 9.07417865e-01
9.75163079e-01 1.50183069e-01 -1.62794383e-01
8.39905104e-01 5.36571205e-01 -8.15521687e-02
6.01140515e-01 4.17296530e-01 6.81537740e-01
-7.02999114e-01 6.09420690e-01 3.66604245e-01
-7.38745078e-01 -4.59404956e-01 4.93155959e-01
-4.82995924e-01 5.94217775e-01 6.43133096e-01
-2.02149379e-01 3.24754842e-01 -9.23942594e-01
9.01422663e-01 2.92842124e-01 -3.18874065e-01
9.32039746e-01 1.03953658e-01 3.47124687e-01
6.91156185e-01 5.84927264e-01 -4.24456382e-01
7.51803234e-02 7.34266109e-01 6.74686005e-01
-2.23717082e-01 7.03384354e-01 -6.74685938e-01
-3.83521783e-01 7.34648992e-01 -5.59644440e-01
9.27000838e-01 3.53553530e-01 -1.25177252e-01
-2.45093311e-01 3.41353325e-01 9.07417866e-01
8.62198670e-01 -4.57481052e-02 5.04500313e-01
-9.02664287e-01 1.33009185e-01 -4.09274653e-01
-8.00451574e-01 -5.85675092e-01 1.27522412e-01
4.23348312e-01 -8.89615170e-01 1.71350677e-01
5.61033609e-01 7.15760935e-01 4.15845614e-01
2.15287539e-01 -5.19662496e-01 8.26802376e-01
6.52482251e-01 -5.22105092e-01 5.49247838e-01
-7.99460578e-01 5.66946764e-01 -1.98580342e-01
3.48519059e-01 -1.88800214e-01 -9.18089831e-01
4.06507360e-01 8.65664662e-01 -2.92192502e-01
-6.01140606e-01 -4.17296560e-01 6.81537642e-01
7.80348563e-01 -1.34756097e-01 -6.10652854e-01
-4.19754506e-02 4.47947270e-01 8.93074079e-01
2.85995602e-01 5.15133124e-02 9.56845285e-01
2.90486997e-01 8.04861331e-03 -9.56845085e-01
3.54207451e-01 -7.60013474e-01 5.44900544e-01
2.94770611e-01 9.20578163e-01 2.56215016e-01
4.13527020e-02 9.67227677e-01 -2.50520607e-01
2.26609052e-01 -5.26690661e-01 -8.19295599e-01
4.76761645e-01 -8.40864039e-01 -2.56214749e-01
-4.76762501e-01 8.40863459e-01 -2.56215070e-01
7.20657451e-01 6.92665151e-01 -2.94588832e-02
9.79704746e-01 -1.56553852e-01 1.25177873e-01
-2.25217351e-01 -7.97543209e-01 5.59644510e-01
-7.38602099e-01 -8.17847903e-02 -6.69162301e-01
-9.03287428e-01 4.09645813e-01 -1.27523063e-01
4.81706839e-01 -3.41091475e-02 -8.75668362e-01
-2.15287644e-01 5.19662466e-01 8.26802370e-01
5.48013440e-01 3.29270066e-01 -7.68935945e-01
-5.94029395e-01 7.98393212e-01 9.84751732e-02
-2.27663218e-01 -2.01405806e-01 -9.52683134e-01
7.38602665e-01 8.17853010e-02 -6.69161611e-01
-9.76900554e-01 -2.11681759e-01 2.92599288e-02
-7.20410602e-01 -6.53266145e-01 -2.32920391e-01
6.73761148e-01 -2.85574603e-01 -6.81537274e-01
8.54704344e-01 2.45318809e-02 -5.18535115e-01
-8.47054040e-01 5.30689731e-01 2.94595501e-02
4.18243709e-01 9.02981057e-01 -9.84754307e-02
-5.22009483e-01 2.42736094e-01 -8.17670645e-01
-8.43556430e-01 -4.60223553e-01 2.76779395e-01
5.91372354e-01 5.80775248e-01 5.59445129e-01
9.42253952e-01 -1.02354595e-01 3.18874624e-01
1.12029198e-01 1.56470350e-01 9.81308562e-01
-2.32519049e-01 -9.57378678e-01 -1.71350395e-01
-9.72406530e-01 7.06216643e-02 -2.22346850e-01
-1.82039642e-02 -8.94300366e-01 -4.47096708e-01
5.92436487e-01 -7.99312189e-01 -1.00593386e-01
-9.99543844e-01 7.47674513e-03 -2.92609648e-02
-5.59434032e-03 -8.55149972e-01 5.18350490e-01
8.56401778e-01 3.14753996e-01 4.09274868e-01
9.72406726e-01 -7.06210749e-02 -2.22346170e-01
-4.16498315e-01 -9.03554128e-01 1.00593692e-01
-5.61034168e-01 -7.15760590e-01 4.15845457e-01
-3.03286767e-01 9.33707900e-01 -1.90280569e-01
8.17067842e-01 -2.98659125e-01 -4.93156022e-01
-8.83533815e-02 4.97617898e-02 9.94845441e-01
-7.20657652e-01 -6.92664894e-01 -2.94600519e-02
-8.62198811e-01 4.57472258e-02 5.04500156e-01
-9.08226728e-01 -4.11564348e-01 7.57561857e-02
5.74288856e-01 -4.04543103e-01 7.11714262e-01
-1.70123377e-01 -3.84253343e-01 -9.07417985e-01
-7.47647344e-01 1.33152586e-01 6.50610363e-01
-4.35009392e-01 2.77446338e-01 8.56615646e-01
5.32870624e-01 -7.33462047e-01 -4.21998008e-01
6.97623522e-01 -4.47597060e-01 -5.59444624e-01
-9.31868149e-01 3.53512205e-01 8.15529112e-02
8.24732524e-01 -4.41637870e-01 -3.53231159e-01
4.79446393e-01 5.13414322e-01 -7.11714047e-01
-8.34631747e-01 -2.21062593e-01 -5.04500918e-01
5.63548566e-01 7.40280084e-01 -3.66603886e-01
-6.13596893e-01 -2.11824582e-01 7.60676807e-01
9.10713366e-01 -3.03735016e-01 2.79903918e-01
4.61354334e-01 3.44336724e-01 8.17670107e-01
2.98600791e-01 5.39024831e-01 -7.87584785e-01
2.16184724e-01 9.04888642e-01 -3.66661573e-01
7.38744793e-01 4.59404713e-01 4.93156611e-01
-9.27000816e-01 -3.53553109e-01 -1.25178621e-01
-7.34498916e-01 6.77589837e-01 -3.71935277e-02
-9.19832081e-01 2.78031688e-01 -2.76780282e-01
6.14085617e-02 -6.40716936e-01 -7.65317444e-01
-1.54957625e-01 -9.05149658e-01 3.95843697e-01
5.22010823e-01 -2.42736110e-01 -8.17669783e-01
-2.62083241e-01 9.64299074e-01 3.79430277e-02
5.31951605e-01 6.44479879e-01 -5.49247823e-01
-6.61894847e-01 7.03067107e-01 -2.59984335e-01
-9.01422445e-01 -2.92841397e-01 -3.18875354e-01
-5.04961006e-02 4.47067038e-01 -8.93074018e-01
5.94028261e-01 -7.98393973e-01 9.84758189e-02
5.81551423e-01 7.95287231e-01 -1.71219627e-01
5.43008039e-01 -4.38799440e-01 -7.15959017e-01
2.65160900e-01 6.49098902e-01 7.12993911e-01
7.20410544e-01 6.53266632e-01 -2.32919199e-01
4.02499519e-01 -4.66587381e-01 7.87585142e-01
-1.91335587e-01 -8.16378721e-01 -5.44900425e-01
-6.95523714e-01 5.85933765e-01 -4.15846589e-01
9.08226575e-01 4.11564433e-01 7.57575433e-02
-5.48012524e-01 -3.29269794e-01 -7.68936716e-01
-8.29374736e-01 -4.83519130e-01 -2.79904981e-01
-2.98599883e-01 -5.39024643e-01 -7.87585258e-01
-2.94100295e-01 6.50701606e-01 7.00066028e-01
-2.92332517e-01 -4.62906489e-01 8.36814966e-01
-4.34346812e-01 9.00041461e-01 -3.56120419e-02
2.00664222e-01 -8.71686927e-01 4.47097051e-01
-8.54703937e-01 -2.45309971e-02 -5.18535831e-01
-5.92437715e-01 7.99311173e-01 -1.00594257e-01
-5.31951264e-01 -6.44479516e-01 -5.49248581e-01
8.00451305e-01 5.85675174e-01 1.27523718e-01
1.16225832e-02 2.61618762e-01 -9.65101307e-01
-1.48210660e-02 7.83577100e-01 -6.21117752e-01
-4.64556935e-01 -1.31876462e-01 8.75668579e-01
-1.12029244e-01 -1.56470135e-01 9.81308592e-01
-6.97622602e-01 4.47596805e-01 -5.59445979e-01
1.41654703e-01 -1.30259864e-01 -9.81308466e-01
9.33605300e-01 8.88036860e-02 -3.47123962e-01
-3.71653811e-01 -8.26916496e-01 4.21998290e-01
9.76900500e-01 2.11681839e-01 2.92610569e-02
-9.37426370e-01 -2.67944229e-01 2.22345890e-01
-5.93896516e-02 -9.97513513e-01 -3.79428500e-02
1.05976501e-01 9.75992880e-01 1.90281061e-01
1.80316550e-01 -8.35941985e-01 -5.18350204e-01
8.83532902e-02 -4.97615982e-02 9.94845458e-01
1.91335705e-01 8.16379051e-01 -5.44899889e-01
-1.05977593e-01 -9.75992748e-01 1.90281122e-01
4.22168703e-01 1.68551034e-01 -8.90709901e-01
-4.22167699e-01 -1.68550891e-01 -8.90710405e-01
-7.31868349e-01 6.59585075e-01 1.71219894e-01
1.70124581e-01 3.84253578e-01 -9.07417659e-01
6.48659680e-02 -2.53715887e-01 9.65101373e-01
7.25504146e-01 -3.29567870e-01 6.04176096e-01
5.04165438e-01 8.23544569e-01 2.59983759e-01
5.59373821e-03 8.55150116e-01 5.18350261e-01
-1.80316574e-01 8.35942154e-01 -5.18349927e-01
-5.74911269e-01 7.64264746e-01 2.92192463e-01
-6.66656728e-01 -7.18425339e-01 1.98579559e-01
1.54847857e-01 6.97087015e-01 -7.00065590e-01
6.42796509e-01 4.70939539e-01 -6.04175962e-01
-5.93733491e-01 -1.31276539e-01 -7.93880978e-01
2.32518461e-01 9.57378888e-01 -1.71350018e-01
3.51301550e-01 6.80417021e-01 -6.43132874e-01
4.47711407e-01 -7.86755196e-02 8.90710202e-01
3.83522252e-01 -7.34648928e-01 -5.59644199e-01
8.38756708e-01 -4.92174584e-01 2.32919218e-01
7.63135199e-02 6.67749303e-02 -9.94845389e-01
1.45698820e-01 -7.70054433e-01 6.21118369e-01
-6.03758003e-01 2.10269595e-01 7.68936264e-01
9.37426185e-01 2.67943968e-01 2.22346972e-01
5.74910345e-01 -7.64265279e-01 2.92192876e-01
7.96147855e-01 -4.31260187e-01 4.24456412e-01
8.41664637e-01 1.50735722e-01 5.18535806e-01
-6.91156014e-01 -5.84926660e-01 -4.24457494e-01
2.38234502e-01 -9.38340752e-01 2.50521367e-01
-7.80347837e-01 1.34756583e-01 -6.10653678e-01
4.41821659e-01 5.40551374e-01 7.15959383e-01
8.50560837e-01 -2.39508505e-01 4.68168708e-01
-4.47711655e-01 7.86755014e-02 8.90710080e-01
-6.48659889e-02 2.53716032e-01 9.65101334e-01
2.92332437e-01 4.62906703e-01 8.36814875e-01
6.66656241e-01 7.18425578e-01 1.98580327e-01
-2.64033372e-01 1.50603939e-01 9.52682969e-01
-9.85269278e-01 -5.23680193e-02 1.62794486e-01
-7.83624243e-01 -4.08350569e-01 -4.68169688e-01
8.05197210e-02 -9.90071429e-01 1.15217795e-01
-7.63121091e-02 -6.67749825e-02 -9.94845494e-01
5.93734280e-01 1.31276787e-01 -7.93880345e-01
5.80444965e-01 8.13449619e-01 3.71935453e-02
-1.23607350e-01 9.85619707e-01 -1.15217256e-01
-4.18244192e-01 -9.02980812e-01 -9.84756279e-02
-9.42254070e-01 1.02353928e-01 3.18874498e-01
6.08031916e-01 -7.11124537e-03 7.93880736e-01
7.31867730e-01 -6.59585838e-01 1.71219585e-01
1.82037104e-02 8.94300607e-01 -4.47096240e-01
-5.63548600e-01 -7.40279657e-01 -3.66604697e-01
-1.54847321e-01 -6.97086654e-01 -7.00066068e-01
-7.36312317e-01 -2.91456946e-01 6.10652951e-01
8.29374822e-01 4.83519772e-01 -2.79903612e-01
-2.38235720e-01 9.38340511e-01 2.50521117e-01
-1.16211907e-02 -2.61618701e-01 -9.65101340e-01
6.13596720e-01 2.11824351e-01 7.60677010e-01
-8.38756969e-01 4.92173830e-01 2.32919883e-01
-1.14136516e-01 -5.61896016e-01 8.19295873e-01
-1.41653218e-01 1.30259821e-01 -9.81308687e-01
7.99460146e-01 -5.66947477e-01 -1.98580033e-01
-8.17067218e-01 2.98659469e-01 -4.93156853e-01
-9.32039921e-01 -1.03954249e-01 3.47124047e-01
-7.96147991e-01 4.31259328e-01 4.24457034e-01
-3.96628677e-01 8.41572715e-01 3.66662055e-01
-9.79704844e-01 1.56553397e-01 1.25177699e-01
-4.81705661e-01 3.41092111e-02 -8.75669009e-01
-8.24732108e-01 4.41637993e-01 -3.53231981e-01
-9.75162972e-01 -1.50182607e-01 -1.62795464e-01
-9.73187895e-01 2.17177766e-01 -7.57571185e-02
7.34498092e-01 -6.77590734e-01 -3.71933745e-02
-5.80445402e-01 -8.13449336e-01 3.71929318e-02
7.36312144e-01 2.91456397e-01 6.10653419e-01
-2.65161142e-01 -6.49098698e-01 7.12994006e-01
-1.49258457e-01 9.32692803e-01 -3.28338312e-01
5.38860690e-01 -6.94976078e-01 4.76064501e-01
-8.39905186e-01 -5.36570866e-01 -8.15535739e-02
7.17014789e-01 6.00930268e-01 3.53231662e-01
4.35009417e-01 -2.77446294e-01 8.56615646e-01
2.02150866e-01 -3.24754809e-01 -9.23942279e-01
6.95524166e-01 -5.85934246e-01 -4.15845150e-01
-3.54207805e-01 7.60013421e-01 5.44900392e-01
1.54956846e-01 9.05149856e-01 3.95843552e-01
-8.05210413e-02 9.90071332e-01 1.15217710e-01
-3.80800376e-01 3.93358948e-01 -8.36815277e-01
-3.69093842e-01 -3.60525789e-01 -8.56615950e-01
9.19832378e-01 -2.78031058e-01 -2.76779919e-01
2.41151146e-01 9.69833949e-01 3.56123208e-02
4.64556767e-01 1.31876489e-01 8.75668663e-01
-8.50560883e-01 2.39507626e-01 4.68169079e-01
-5.91372676e-01 -5.80775055e-01 5.59444991e-01
-7.25504109e-01 3.29567183e-01 6.04176519e-01
1.48213834e-02 -7.83576763e-01 -6.21118168e-01
-5.43006771e-01 4.38799419e-01 -7.15959994e-01
-6.14076174e-02 6.40717221e-01 -7.65317283e-01
4.16497629e-01 9.03554439e-01 1.00593746e-01
1.31481843e-01 3.59225490e-01 9.23942411e-01
-3.02554951e-01 -2.56068609e-01 9.18090069e-01
3.02554902e-01 2.56068788e-01 9.18090035e-01
2.23717849e-01 -7.03384132e-01 -6.74685913e-01
5.52483651e-01 -5.99553751e-01 -5.79048452e-01
-5.32870653e-01 7.33461723e-01 -4.21998539e-01
-2.16185040e-01 -9.04888373e-01 -3.66662049e-01
3.96627742e-01 -8.41573067e-01 3.66662252e-01
-1.31481854e-01 -3.59225272e-01 9.23942494e-01
-6.43943226e-01 8.18962827e-02 -7.60677406e-01
-2.94771461e-01 -9.20577879e-01 2.56215059e-01
-5.81551653e-01 -7.95286896e-01 -1.71220403e-01
-3.92271166e-01 5.81173435e-01 -7.12994227e-01
9.73187906e-01 -2.17177787e-01 -7.57568790e-02
3.71653136e-01 8.26916804e-01 4.21998281e-01
1.14136368e-01 5.61896234e-01 8.19295745e-01
-4.45901509e-02 9.43506928e-01 3.28338846e-01
2.64033218e-01 -1.50603921e-01 9.52683014e-01
-4.61354398e-01 -3.44336617e-01 8.17670117e-01
-4.79445606e-01 -5.13414063e-01 -7.11714765e-01
3.36747085e-01 -8.54347365e-01 -3.95843373e-01
5.93887135e-02 9.97513579e-01 -3.79426110e-02
4.18229987e-01 6.99847230e-01 5.79048820e-01
7.83624614e-01 4.08351298e-01 -4.68168427e-01
3.69094934e-01 3.60525961e-01 -8.56615407e-01
1.04492189e-01 5.52702218e-01 -8.26802053e-01
9.31867962e-01 -3.53512784e-01 8.15525071e-02
2.62081837e-01 -9.64299445e-01 3.79432340e-02
-9.33605036e-01 -8.88029166e-02 -3.47124876e-01
6.03757997e-01 -2.10269897e-01 7.68936184e-01
3.92272338e-01 -5.81173342e-01 -7.12993656e-01
4.19754303e-02 -4.47947126e-01 8.93074152e-01
-6.52482342e-01 5.22104581e-01 5.49248219e-01
4.34345343e-01 -9.00042176e-01 -3.56118126e-02
7.04630113e-01 2.83201417e-01 -6.50609987e-01
9.85269181e-01 5.23677046e-02 1.62795157e-01
-6.42795902e-01 -4.70939084e-01 -6.04176965e-01
-8.41664877e-01 -1.50736591e-01 5.18535168e-01
-1.04491154e-01 -5.52701912e-01 -8.26802388e-01
-2.41151951e-01 -9.69833755e-01 3.56121309e-02
-8.56402036e-01 -3.14754564e-01 4.09273895e-01
-4.41821792e-01 -5.40551225e-01 7.15959414e-01
8.34632189e-01 2.21063415e-01 -5.04499822e-01
-5.74288790e-01 4.04542916e-01 7.11714424e-01
-2.85995753e-01 -5.15132034e-02 9.56845247e-01
3.03285690e-01 -9.33708219e-01 -1.90280713e-01
-4.02499575e-01 4.66587490e-01 7.87585051e-01
-6.73760025e-01 2.85574526e-01 -6.81538419e-01
6.43944198e-01 -8.18961865e-02 -7.60676592e-01
-1.45699159e-01 7.70054553e-01 6.21118141e-01
3.80801814e-01 -3.93358905e-01 -8.36814641e-01
2.25216828e-01 7.97543431e-01 5.59644406e-01
-3.48517610e-01 1.88800222e-01 -9.18090381e-01
-2.90485685e-01 -8.04856560e-03 -9.56845485e-01
-3.51301122e-01 -6.80416813e-01 -6.43133329e-01
3.85385575e-01 7.90468755e-01 -4.76064179e-01
1.49257845e-01 -9.32692771e-01 -3.28338676e-01
-4.06507668e-01 -8.65664405e-01 -2.92192833e-01
8.43556152e-01 4.60223324e-01 2.76780618e-01
7.02998791e-01 -6.09421441e-01 3.66603610e-01
4.45891519e-02 -9.43506901e-01 3.28339055e-01
-3.85385514e-01 -7.90468531e-01 -4.76064602e-01
-2.26607741e-01 5.26690809e-01 -8.19295868e-01
-5.52482716e-01 5.99553694e-01 -5.79049406e-01
5.04974308e-02 -4.47066886e-01 -8.93074018e-01
-4.13533163e-02 -9.67227548e-01 -2.50520998e-01
2.27664393e-01 2.01405947e-01 -9.52682823e-01
-7.17015196e-01 -6.00930232e-01 3.53230900e-01
-7.51806881e-02 -7.34265935e-01 6.74686153e-01
-6.08032212e-01 7.11087983e-03 7.93880515e-01
-5.38861097e-01 6.94975906e-01 4.76064296e-01
6.61894015e-01 -7.03068226e-01 -2.59983419e-01
2.94100219e-01 -6.50701564e-01 7.00066096e-01
-2.00664989e-01 8.71686910e-01 4.47096744e-01
-7.39721581e-01 -7.09546584e-02 6.69161733e-01
7.08874184e-02 -6.39737430e-01 7.65317580e-01
-5.04166169e-01 -8.23544168e-01 2.59983613e-01
8.47053646e-01 -5.30690384e-01 2.94590224e-02
-7.04629425e-01 -2.83200924e-01 -6.50610949e-01
9.99543863e-01 -7.47668953e-03 -2.92602471e-02
-7.08876591e-02 6.39737538e-01 7.65317469e-01
4.82995844e-01 -5.94217690e-01 6.43133232e-01
-9.10713496e-01 3.03734248e-01 2.79904341e-01
7.47647262e-01 -1.33153341e-01 6.50610299e-01
9.03287297e-01 -4.09646020e-01 -1.27523306e-01
-4.23349563e-01 8.89614624e-01 1.71350435e-01
-4.18230395e-01 -6.99846985e-01 5.79048822e-01
-3.36747454e-01 8.54347278e-01 -3.95843252e-01
7.39721286e-01 7.09539052e-02 6.69162137e-01
9.02664655e-01 -1.33008372e-01 -4.09274100e-01
1.23606358e-01 -9.85619814e-01 -1.15217398e-01
