1.99048272e-01 4.11446133e-01 8.89434076e-01
2.64950568e-01 5.33714512e-01 -8.03087177e-01
6.68762378e-01 4.02519212e-01 6.25088750e-01
-8.18495111e-01 1.40879923e-01 5.56973336e-01
9.59765053e-01 2.64396659e-01 9.45810071e-02
1.25424686e-01 -1.67764681e-01 -9.77815136e-01
-7.25450874e-02 -6.48149084e-01 -7.58049490e-01
1.31411915e-01 8.72446246e-01 4.70711210e-01
-7.79101647e-01 5.74569757e-01 -2.50738720e-01
-6.58409038e-01 -2.17080369e-01 -7.20675207e-01
-1.47091862e-01 4.08335603e-01 9.00903515e-01
-5.92655950e-01 7.71490238e-01 2.31434717e-01
-3.26181104e-01 8.06270514e-01 -4.93490762e-01
6.87636761e-01 -2.03004724e-01 6.97098011e-01
1.76741561e-02 -9.65656587e-01 -2.59219322e-01
-6.93421756e-01 1.57118544e-01 -7.03192118e-01
-9.13657223e-01 -4.02248777e-01 -5.85348397e-02
6.88628016e-01 -6.51369083e-03 7.25086154e-01
4.87915378e-01 8.02621017e-01 3.43130464e-01
-3.33324720e-01 1.77335771e-01 -9.25983532e-01
1.71322602e-01 -2.12952986e-01 9.61925564e-01
-2.49900308e-01 8.48105173e-01 4.67191648e-01
7.50751572e-01 -3.22491527e-01 -5.76515891e-01
8.84326040e-01 -4.12255861e-01 -2.19117059e-01
7.09455095e-01 5.69599740e-01 -4.15004924e-01
-4.22475039e-01 8.94067066e-01 1.48859363e-01
-4.17925761e-01 3.53556859e-01 -8.36859942e-01
-1.93268932e-01 -9.22679113e-01 -3.33631470e-01
-6.42557684e-02 9.96401265e-01 -5.52779110e-02
5.43141468e-01 8.08607776e-01 -2.26164824e-01
-8.84325676e-01 4.12256612e-01 -2.19117120e-01
5.25232829e-01 -1.70355285e-01 -8.33731678e-01
-2.56933359e-01 9.27890231e-01 2.70194940e-01
-9.97345065e-01 -3.96047795e-02 6.11094156e-02
9.27648953e-01 -3.73225980e-01 -1.30296281e-02
-4.31600903e-01 -4.50995049e-03 -9.02052768e-01
2.06925671e-01 3.39650065e-01 -9.17506651e-01
-9.59765022e-01 -2.64396196e-01 9.45826233e-02
5.72856335e-02 7.85122665e-01 -6.16684675e-01
-5.95576137e-01 3.37842952e-01 -7.28800587e-01
-5.72860093e-02 -7.85123372e-01 -6.16683740e-01
3.69855139e-01 4.83941789e-01 7.93100568e-01
-3.89532965e-01 9.19083156e-01 -5.95831220e-02
-9.36144408e-01 1.01827558e-01 -3.36547734e-01
3.93420483e-01 8.33610393e-01 -3.87702918e-01
9.14193334e-01 -2.11166384e-02 4.04728476e-01
6.98751330e-01 4.09407021e-01 -5.86627427e-01
-8.02934259e-01 -3.99358297e-01 4.42504327e-01
3.26181410e-01 -8.06271295e-01 -4.93489281e-01
-9.01093650e-01 -3.36941056e-01 2.72949263e-01
-5.31673486e-01 -3.51109790e-01 7.70743914e-01
-2.25005793e-01 3.53448132e-01 -9.07989911e-01
-8.14009321e-01 -5.29344538e-02 5.78435382e-01
5.95575091e-01 -3.37844287e-01 -7.28800822e-01
-8.30510037e-01 1.46348844e-01 -5.37433182e-01
1.47091611e-01 -4.08335266e-01 9.00903708e-01
8.87744644e-01 2.18967560e-01 -4.04922399e-01
7.88204922e-01 -3.33169658e-01 5.17427894e-01
4.00591464e-02 -8.23267462e-01 5.66239045e-01
1.91797728e-01 5.98148598e-01 7.78095660e-01
4.96229500e-01 -7.73273884e-01 -3.94719255e-01
8.18495343e-01 -1.40878358e-01 5.56973388e-01
6.29727675e-03 6.92919324e-01 7.20988248e-01
5.67003548e-01 7.16002182e-01 -4.07243593e-01
-9.32058225e-01 3.10321709e-01 1.86997693e-01
-9.63415605e-01 -1.16378566e-01 2.41426395e-01
-7.84479616e-01 -2.47512062e-01 5.68621333e-01
2.08212551e-01 -7.41806058e-01 6.37473216e-01
7.25447562e-02 6.48148399e-01 -7.58050108e-01
8.76553863e-01 3.55819542e-02 -4.79986094e-01
5.58462618e-01 3.98424678e-01 -7.27582554e-01
-2.96043769e-01 5.29107642e-01 -7.95237197e-01
-9.83626524e-01 1.77600246e-01 3.06113183e-02
6.37767777e-01 -4.90267425e-01 -5.94044925e-01
-4.90828949e-01 6.61470504e-01 -5.67047626e-01
-2.06927567e-01 -3.39651288e-01 -9.17505771e-01
-1.80414091e-01 7.64790021e-03 9.83561636e-01
2.26601621e-01 3.28709639e-03 -9.73981358e-01
1.72149342e-01 7.55525898e-01 6.32096520e-01
3.33323456e-01 -1.77337713e-01 -9.25983614e-01
2.45739896e-02 8.93711969e-01 -4.47967050e-01
6.68919580e-01 1.95224202e-01 7.17241243e-01
-8.06834219e-01 -5.88001324e-01 -5.72093878e-02
-2.50122483e-01 -9.53434777e-01 1.68526201e-01
-2.37369531e-02 -3.13788499e-01 9.49196776e-01
2.18235938e-01 -9.60408246e-01 -1.73172916e-01
-7.90033923e-01 -5.35422226e-01 2.98613149e-01
-7.50783344e-01 -6.47737658e-01 1.29462187e-01
-7.31535770e-01 6.72954057e-01 1.09491515e-01
1.93269157e-01 9.22678629e-01 -3.33632678e-01
3.11231317e-01 -4.86225057e-01 8.16530024e-01
6.50859094e-01 -3.95294728e-01 6.48170754e-01
-7.09455779e-01 -5.69600335e-01 -4.15002939e-01
3.70136813e-01 2.90146477e-01 8.82504879e-01
2.37368805e-02 3.13788505e-01 9.49196776e-01
5.92657043e-01 -7.71489151e-01 2.31435536e-01
-1.25425850e-01 1.67762835e-01 -9.77815304e-01
-5.72270218e-01 8.19369584e-01 3.37687101e-02
2.13916978e-02 -3.32592054e-01 -9.42827526e-01
-3.63344191e-01 8.85821875e-01 -2.88617818e-01
-4.20561827e-01 -7.16333162e-01 -5.56770918e-01
-6.03768589e-01 -7.83440103e-01 1.47259225e-01
-1.02937588e-01 -1.71085517e-01 -9.79863448e-01
7.33562464e-01 -6.10539362e-01 2.98543415e-01
-2.39335870e-01 9.69234691e-01 5.74676212e-02
-3.61425372e-01 1.15853701e-01 9.25176078e-01
2.55164049e-01 6.95855246e-01 -6.71324026e-01
5.25330794e-01 5.39061600e-01 6.58362339e-01
3.89534122e-01 -9.19082727e-01 -5.95821517e-02
-3.39505333e-01 -7.87937081e-01 5.13704123e-01
-9.14193119e-01 2.11179257e-02 4.04728897e-01
4.32810504e-01 5.61885055e-01 -7.04953455e-01
-7.33561608e-01 6.10540735e-01 2.98542712e-01
-6.99577243e-03 -1.06965343e-01 9.94238761e-01
-1.76737761e-02 9.65656276e-01 -2.59220507e-01
8.06834190e-01 5.88001154e-01 -5.72115402e-02
7.58053202e-01 3.12897162e-02 -6.51441082e-01
2.96042392e-01 -5.29109504e-01 -7.95236470e-01
9.83626750e-01 -1.77599072e-01 3.06108408e-02
-8.51980751e-01 5.02358585e-01 1.47529104e-01
8.72543747e-01 4.73394711e-01 1.20685574e-01
3.68460419e-01 -6.26327164e-01 6.86987671e-01
9.56216037e-01 -2.33442983e-01 -1.76507912e-01
-7.50752269e-01 3.22490625e-01 -5.76515489e-01
8.91704402e-01 1.85951723e-01 4.12656915e-01
-1.08803901e-01 5.19797946e-01 -8.47331547e-01
8.14134788e-01 4.01764395e-01 -4.19248607e-01
2.49901408e-01 -8.48104619e-01 4.67192063e-01
3.63345064e-01 -8.85821976e-01 -2.88616405e-01
3.93650205e-01 3.76049488e-01 -8.38823731e-01
-8.76880997e-01 2.85482442e-01 -3.86754458e-01
9.36144034e-01 -1.01827574e-01 -3.36548765e-01
-5.25298383e-01 8.33955133e-01 -1.69056899e-01
-3.11231163e-01 4.86225720e-01 8.16529688e-01
-2.08211620e-01 7.41806695e-01 6.37472780e-01
-1.91797141e-01 -5.98148904e-01 7.78095570e-01
-9.56215927e-01 2.33443773e-01 -1.76507466e-01
-6.51346352e-01 -6.85051803e-01 3.26270385e-01
-5.58463996e-01 -3.98426055e-01 -7.27580742e-01
2.25004564e-01 -3.53450102e-01 -9.07989448e-01
4.99826734e-01 8.65377837e-01 -3.59776462e-02
7.01616622e-01 6.72463533e-01 -2.35640867e-01
6.42746704e-01 -7.16177925e-01 -2.71966018e-01
3.61425866e-01 -1.15853137e-01 9.25175955e-01
-5.81742746e-01 -5.76112617e-01 -5.74168019e-01
-4.99826608e-01 -8.65377959e-01 -3.59764431e-02
3.21590411e-01 1.78653883e-01 -9.29871624e-01
-1.31411297e-01 -8.72445976e-01 4.70711884e-01
-5.36579537e-01 5.84432663e-02 8.41824112e-01
-4.00579960e-02 8.23267227e-01 5.66239469e-01
4.30778619e-01 -8.33246289e-01 3.46598954e-01
7.31536753e-01 -6.72952864e-01 1.09492272e-01
-9.91287364e-01 3.96709941e-02 -1.25600235e-01
-6.67417477e-07 -1.01518339e-06 -9.99999376e-01
-4.35923279e-01 -8.85563229e-01 1.60464522e-01
-8.28665773e-01 -5.05855134e-01 -2.39631636e-01
-8.32867829e-01 5.51162375e-01 -5.05089426e-02
7.05028132e-01 -5.21775303e-01 4.80298307e-01
3.58476625e-01 9.10313358e-01 -2.06939222e-01
5.18128748e-01 6.85949450e-01 5.10897827e-01
-4.91332892e-01 4.44940026e-01 7.48746484e-01
7.79093740e-02 -9.81520786e-01 1.74777840e-01
9.41371196e-02 9.93915200e-01 5.71913373e-02
5.30397747e-01 -2.54435246e-01 8.08666769e-01
4.74112775e-01 -5.17644523e-01 -7.12222110e-01
9.70307872e-01 -9.92733449e-02 2.20562258e-01
9.18858862e-01 3.17018406e-01 -2.34941331e-01
-6.87636536e-01 2.03006183e-01 6.97097808e-01
1.80414633e-01 -7.64766258e-03 9.83561539e-01
3.10468536e-01 9.50363094e-01 -2.04756524e-02
-6.68919214e-01 -1.95222741e-01 7.17241983e-01
-9.58266074e-01 -9.19750408e-02 -2.70677645e-01
-6.68762269e-01 -4.02517875e-01 6.25089728e-01
-7.82685750e-01 4.57801014e-01 -4.21687945e-01
-5.25234134e-01 1.70353641e-01 -8.33731193e-01
-8.87745534e-01 -2.18968064e-01 -4.04920177e-01
-2.45737090e-02 -8.93712554e-01 -4.47965897e-01
5.72271412e-01 -8.19368711e-01 3.37696236e-02
7.82685682e-01 -4.57801116e-01 -4.21687958e-01
3.57942809e-01 6.53976288e-01 6.66477901e-01
6.52205377e-01 -6.15634567e-01 -4.42291390e-01
-6.65893954e-01 -7.44429247e-01 -4.90945729e-02
-2.26602981e-01 -3.28890266e-03 -9.73981035e-01
-3.21592222e-01 -1.78655308e-01 -9.29870724e-01
6.58407614e-01 2.17078957e-01 -7.20676933e-01
-6.37768453e-01 4.90266595e-01 -5.94044885e-01
1.56068199e-01 -6.03297325e-01 7.82097200e-01
7.79102278e-01 -5.74569096e-01 -2.50738270e-01
8.51981462e-01 -5.02357235e-01 1.47529590e-01
-7.01616879e-01 -6.72463913e-01 -2.35639016e-01
-5.25330756e-01 -5.39060735e-01 6.58363077e-01
-8.14135704e-01 -4.01764983e-01 -4.19246266e-01
-4.13088566e-01 7.41141801e-01 5.29213878e-01
9.79079030e-01 1.83734192e-01 -8.74407805e-02
-6.08627469e-01 -2.00285009e-02 -7.93202669e-01
-2.13929531e-02 3.32590598e-01 -9.42828012e-01
1.94746695e-01 2.04403553e-01 9.59319607e-01
9.63415715e-01 1.16379518e-01 2.41425491e-01
9.01093841e-01 3.36941786e-01 2.72947727e-01
-7.88204567e-01 3.33171189e-01 5.17427450e-01
-3.49258839e-01 3.06017341e-01 8.85648212e-01
-4.30777519e-01 8.33247123e-01 3.46598319e-01
1.02936064e-01 1.71083721e-01 -9.79863922e-01
8.76880783e-01 -2.85482524e-01 -3.86754880e-01
-9.27648480e-01 3.73227154e-01 -1.30296926e-02
-6.88627607e-01 6.51522355e-03 7.25086530e-01
2.39336874e-01 -9.69234397e-01 5.74683887e-02
-7.87298668e-01 -2.24326324e-01 -5.74315064e-01
5.49868120e-01 -5.83437470e-01 5.97701024e-01
-1.71322338e-01 2.12953267e-01 9.61925549e-01
6.99620816e-03 1.06965381e-01 9.94238754e-01
6.93420710e-01 -1.57119864e-01 -7.03192853e-01
-1.24800402e-01 6.80923364e-01 -7.21642108e-01
-1.99048272e-01 -4.11446133e-01 8.89434076e-01
-8.37675266e-01 4.28781696e-01 3.38299910e-01
-5.84532636e-01 6.93479506e-01 4.21198645e-01
2.99820042e-01 8.87980998e-01 3.48709228e-01
-4.87914858e-01 -8.02620898e-01 3.43131483e-01
4.31599358e-01 4.50829715e-03 -9.02053515e-01
7.94112633e-02 -9.18454532e-01 3.87473363e-01
-7.79085879e-02 9.81520938e-01 1.74777341e-01
2.56934546e-01 -9.27889776e-01 2.70195371e-01
-1.47789749e-01 -9.78644520e-01 -1.42873770e-01
6.72778650e-01 5.56696441e-01 4.87297207e-01
-2.99819418e-01 -8.87980881e-01 3.48710060e-01
1.24799949e-01 -6.80924886e-01 -7.21640750e-01
-9.41366739e-02 -9.93915188e-01 5.71922697e-02
-3.10468321e-01 -9.50363184e-01 -2.04746922e-02
9.91287260e-01 -3.96701715e-02 -1.25601307e-01
-2.19511808e-02 -5.16697307e-01 8.55887321e-01
-7.58054318e-01 -3.12909422e-02 -6.51439726e-01
-2.64951703e-01 -5.33715924e-01 -8.03085864e-01
-5.49867492e-01 5.83438615e-01 5.97700486e-01
-7.94101419e-02 9.18454612e-01 3.87473404e-01
6.42563113e-02 -9.96401285e-01 -5.52769093e-02
2.50122966e-01 9.53434804e-01 1.68525328e-01
6.51346794e-01 6.85052101e-01 3.26268875e-01
-6.50858766e-01 3.95296095e-01 6.48170251e-01
5.36580030e-01 -5.84422223e-02 8.41823870e-01
9.00123099e-02 9.53564462e-01 2.87424702e-01
-8.91704225e-01 -1.85950499e-01 4.12657851e-01
9.58265566e-01 9.19751362e-02 -2.70679408e-01
-1.76580731e-01 9.07841122e-01 -3.80319957e-01
-8.72543550e-01 -4.73394542e-01 1.20687663e-01
-5.67003943e-01 -7.16002727e-01 -4.07242086e-01
4.90828857e-01 -6.61471284e-01 -5.67046793e-01
-1.39709571e-01 8.12224265e-01 -5.66367613e-01
-3.70136549e-01 -2.90146027e-01 8.82505138e-01
2.19508717e-02 5.16697056e-01 8.55887480e-01
-3.68459917e-01 6.26327986e-01 6.86987192e-01
9.13657104e-01 4.02248719e-01 -5.85370809e-02
2.30293018e-01 8.27373178e-01 -5.12267617e-01
-3.93420648e-01 -8.33610878e-01 -3.87701707e-01
-5.43141593e-01 -8.08608079e-01 -2.26163443e-01
-8.36409883e-02 -4.86169086e-01 -8.69852125e-01
6.08626103e-01 2.00269017e-02 -7.93203756e-01
4.13089482e-01 -7.41140897e-01 5.29214428e-01
-5.26164296e-01 -1.44071747e-01 8.38090396e-01
5.26164775e-01 1.44072753e-01 8.38089921e-01
-6.52205172e-01 6.15634470e-01 -4.42291830e-01
-5.02712553e-01 -2.00938435e-01 -8.40775110e-01
-3.69854845e-01 -4.83941530e-01 7.93100863e-01
8.30509304e-01 -1.46349702e-01 -5.37434080e-01
-6.72778343e-01 -5.56695637e-01 4.87298551e-01
1.76581270e-01 -9.07841671e-01 -3.80318393e-01
1.39709508e-01 -8.12225338e-01 -5.66366089e-01
8.37675843e-01 -4.28780200e-01 3.38300374e-01
5.84533558e-01 -6.93478319e-01 4.21199318e-01
-4.96228857e-01 7.73273729e-01 -3.94720369e-01
8.99230961e-01 -2.26933162e-01 3.74012679e-01
-8.99230655e-01 2.26934546e-01 3.74012577e-01
5.31673765e-01 3.51110708e-01 7.70743303e-01
9.32058672e-01 -3.10320337e-01 1.86997736e-01
8.32868577e-01 -5.51161290e-01 -5.05084390e-02
4.35923702e-01 8.85563205e-01 1.60463508e-01
3.13848096e-01 -6.83290584e-01 -6.59251490e-01
-4.32811432e-01 -5.61886283e-01 -7.04951906e-01
-1.72148907e-01 -7.55525569e-01 6.32097031e-01
-8.76554690e-01 -3.55827016e-02 -4.79984530e-01
8.28665351e-01 5.05854741e-01 -2.39633924e-01
7.84479813e-01 2.47513620e-01 5.68620383e-01
1.47790024e-01 9.78644320e-01 -1.42874865e-01
4.91333145e-01 -4.44939121e-01 7.48746855e-01
-6.42745813e-01 7.16178449e-01 -2.71966747e-01
-3.58476562e-01 -9.10313621e-01 -2.06938172e-01
3.49258924e-01 -3.06016800e-01 8.85648365e-01
-6.29573932e-03 -6.92920071e-01 7.20987543e-01
7.50783615e-01 6.47737738e-01 1.29460213e-01
5.81741935e-01 5.76111668e-01 -5.74169792e-01
1.08802356e-01 -5.19799475e-01 -8.47330806e-01
7.90034294e-01 5.35422725e-01 2.98611272e-01
-3.57942739e-01 -6.53975843e-01 6.66478374e-01
-9.70307662e-01 9.92744965e-02 2.20562669e-01
6.65893988e-01 7.44429104e-01 -4.90962900e-02
-3.61394386e-01 -8.30112482e-02 9.28711144e-01
4.17924533e-01 -3.53558705e-01 -8.36859774e-01
6.03768935e-01 7.83440109e-01 1.47257771e-01
-3.93651753e-01 -3.76051048e-01 -8.38822305e-01
-7.05027492e-01 5.21776749e-01 4.80297679e-01
-9.79079258e-01 -1.83733819e-01 -8.74390190e-02
-9.18859384e-01 -3.17018644e-01 -2.34938970e-01
-5.18128430e-01 -6.85949011e-01 5.10898739e-01
5.25299553e-01 -8.33954606e-01 -1.69055859e-01
4.22476243e-01 -8.94066373e-01 1.48860098e-01
-3.13848436e-01 6.83289208e-01 -6.59252756e-01
3.61394923e-01 8.30117882e-02 9.28710887e-01
8.02934503e-01 3.99359379e-01 4.42502907e-01
-9.00116587e-02 -9.53564291e-01 2.87425473e-01
7.87297470e-01 2.24325325e-01 -5.74317095e-01
-1.94746411e-01 -2.04403340e-01 9.59319710e-01
3.39505783e-01 7.87937346e-01 5.13703419e-01
-2.55164303e-01 -6.95856347e-01 -6.71322788e-01
-7.00961748e-01 7.08466563e-01 -8.20222897e-02
-6.98752517e-01 -4.09408055e-01 -5.86625292e-01
5.02710943e-01 2.00936785e-01 -8.40776467e-01
-2.18235196e-01 9.60408181e-01 -1.73174216e-01
7.00962757e-01 -7.08465651e-01 -8.20215333e-02
4.20561522e-01 7.16332307e-01 -5.56772250e-01
8.14009624e-01 5.29360666e-02 5.78434807e-01
-4.74113817e-01 5.17643137e-01 -7.12222426e-01
-2.30293028e-01 -8.27374016e-01 -5.12266259e-01
-1.56068193e-01 6.03298175e-01 7.82096546e-01
9.97345089e-01 3.96056617e-02 6.11084330e-02
8.36393191e-02 4.86168294e-01 -8.69852728e-01
-5.30397575e-01 2.54436192e-01 8.08666585e-01
