5.73575394e-02 9.87630760e-01 1.45930091e-01
1.58006852e-01 -9.59510744e-01 -2.33180129e-01
-1.49167288e-01 9.74276239e-01 1.68922837e-01
7.11231606e-01 -1.82502682e-01 -6.78853725e-01
-1.17067360e-01 2.72084851e-02 9.92751192e-01
1.97996904e-01 -4.31262914e-01 -8.80232656e-01
-2.67407467e-01 -9.52469122e-01 -1.45930872e-01
4.50052505e-01 1.82360921e-01 8.74183756e-01
-8.34351488e-01 5.24698022e-01 -1.68966187e-01
-9.59744694e-01 -2.24372349e-01 1.68959063e-01
-1.31885160e-01 -2.03875610e-01 -9.70072699e-01
-4.87538024e-01 6.99656179e-01 -5.22291013e-01
-6.71023844e-02 -4.80944049e-01 8.74179668e-01
9.29729124e-01 1.34327161e-01 -3.42870204e-01
-7.96907843e-01 -3.38368884e-01 -5.00444187e-01
-3.06515732e-01 -2.90909462e-01 -9.06322123e-01
7.92990009e-01 -3.26991520e-01 -5.14046107e-01
4.90401626e-02 -1.09721888e-01 -9.92751818e-01
1.12335527e-01 8.65316804e-01 4.88474723e-01
-5.54720828e-01 -2.67630718e-01 7.87818886e-01
4.23404195e-01 -7.93599224e-01 4.36954419e-01
-9.07492742e-01 4.19465686e-01 -2.24822706e-02
-3.24295061e-01 -2.68187086e-02 9.45575733e-01
7.47792078e-01 1.39975880e-01 6.49009834e-01
5.03204095e-01 3.83003770e-01 7.74657184e-01
9.98164974e-01 -6.01477773e-02 6.99546735e-03
-9.67874810e-01 -1.94224519e-01 -1.59672110e-01
2.15140308e-01 7.43124600e-01 -6.33624871e-01
6.20878291e-01 -4.42040718e-01 6.47387177e-01
-4.46992777e-01 8.94510230e-01 6.99284897e-03
7.51960267e-01 6.16591844e-01 -2.33174312e-01
4.49889712e-01 -5.33974845e-01 7.15870181e-01
1.33454591e-01 -4.55391949e-01 8.80231814e-01
1.07081550e-02 -6.98150917e-01 -7.15870545e-01
-6.49856485e-01 4.19765646e-01 6.33627133e-01
-1.10616086e-01 2.16162012e-01 -9.70071165e-01
9.16077946e-02 9.79212859e-01 -1.80970124e-01
-1.43069812e-01 -4.11425231e-01 -9.00144605e-01
5.64485171e-01 5.55956656e-01 -6.10138256e-01
1.99233239e-01 -7.66832429e-01 -6.10142727e-01
-9.46776478e-01 1.49179255e-01 -2.85236471e-01
2.12347886e-01 9.18332420e-01 -3.34026857e-01
8.57939072e-01 4.88308939e-01 1.59671326e-01
7.41465915e-01 4.67530150e-01 4.81293943e-01
5.94249704e-01 1.61884031e-01 -7.87820319e-01
3.15735557e-01 9.35317490e-01 -1.59662924e-01
-6.56239178e-01 -3.84884048e-01 -6.49010330e-01
-2.62784922e-01 5.21914330e-01 -8.11510637e-01
9.69418108e-01 -1.65513331e-01 -1.81201205e-01
-1.95072492e-01 3.74873996e-01 9.06320145e-01
-7.28922549e-01 6.09965478e-01 -3.10827970e-01
-8.51859038e-01 4.98841936e-01 1.59664944e-01
-6.08063904e-03 -9.87152651e-01 1.59664251e-01
-6.91157230e-01 7.07818425e-01 -1.45927218e-01
1.22426444e-01 -9.42332576e-01 3.11482078e-01
8.17014800e-01 5.76178506e-01 -2.24755266e-02
-1.13307934e-01 8.50245882e-01 -5.14045961e-01
4.27846578e-01 8.18109910e-02 -9.00141251e-01
9.31203035e-01 -6.14030571e-02 -3.59291775e-01
8.26634562e-01 -5.43488469e-01 1.45930094e-01
4.61872659e-01 8.55745023e-01 2.33182552e-01
-2.24252572e-01 9.05940205e-01 -3.59142207e-01
8.20924774e-02 8.77708605e-02 9.92752285e-01
-6.07600249e-01 7.12193371e-01 3.51571518e-01
-4.58324169e-01 -8.72584222e-01 -1.68925223e-01
-4.72479829e-01 4.41681856e-02 -8.80234049e-01
5.32746999e-01 -6.34253923e-01 5.60270115e-01
-3.20590468e-01 -4.88534699e-01 -8.11514387e-01
-6.72436806e-01 -6.47178568e-01 -3.59149886e-01
3.27645111e-01 3.43272023e-01 8.80234627e-01
-1.78656674e-01 -7.40926051e-01 -6.47387351e-01
-3.62251151e-01 -9.31822793e-01 2.19177128e-02
2.62361323e-01 1.92490053e-01 -9.45576078e-01
-3.76596918e-01 -2.18911455e-01 9.00140285e-01
8.35295561e-01 -4.29786650e-01 3.42877192e-01
3.44198968e-01 -8.94521665e-01 -2.85233357e-01
3.55235668e-02 -3.23450221e-01 -9.45578148e-01
-1.63780124e-01 -9.36248094e-01 -3.10830468e-01
5.54954141e-01 -2.24365382e-01 -8.01053109e-01
7.37778383e-01 -5.99222645e-01 3.10829996e-01
-6.93261466e-01 -3.16682015e-01 6.47380133e-01
3.26995533e-01 -9.00953019e-01 2.85232509e-01
8.60980801e-01 3.83578742e-01 3.34035049e-01
-8.98981684e-01 3.01173242e-02 4.36949506e-01
9.80119191e-01 5.34408448e-02 1.91077090e-01
-8.45637035e-01 -5.33307747e-01 -2.19282331e-02
1.91852306e-01 9.81392691e-01 -7.81521377e-03
-6.32547865e-01 1.50343482e-01 -7.59789465e-01
-9.01469782e-01 -2.75267847e-01 -3.34035685e-01
7.10264523e-01 4.26177699e-01 -5.60265010e-01
8.37341645e-01 -1.27791194e-01 -5.31533995e-01
1.01664852e-01 6.40760929e-01 -7.60979428e-01
2.36472970e-02 -5.24473228e-01 -8.51098491e-01
-3.26085413e-01 5.01975869e-01 8.01054633e-01
9.63337522e-01 -2.68201414e-01 -6.98777234e-03
8.49690335e-01 7.23956394e-02 -5.22288439e-01
2.82902390e-01 7.78499737e-01 5.60271716e-01
2.88424932e-01 -9.54245396e-01 -7.89100019e-02
-4.43778890e-01 -8.75530315e-01 1.91067957e-01
3.51045130e-01 -5.26002424e-01 -7.74653969e-01
-5.48179862e-01 -6.45734476e-01 5.31531581e-01
1.94422719e-02 -9.24431191e-01 -3.80852958e-01
3.80242362e-01 -7.96255650e-01 -4.70523849e-01
-8.15656936e-01 -1.44250362e-01 5.60263856e-01
6.58775075e-01 6.12445976e-01 -4.36950032e-01
1.39518004e-02 -8.28192145e-01 -5.60270579e-01
-8.79696730e-01 6.88329297e-02 -4.70527030e-01
7.23738674e-02 7.58717387e-01 6.47387014e-01
7.90863655e-01 4.79051594e-01 -3.80846760e-01
8.71578239e-01 4.60221375e-01 -1.68960542e-01
2.74492239e-01 3.87102140e-01 -8.80230621e-01
-9.46080309e-01 2.97508413e-01 1.28143606e-01
-3.41368892e-01 9.22297535e-01 -1.81203011e-01
3.78812213e-01 5.28412578e-01 7.59790401e-01
-4.61112874e-01 1.12112754e-01 8.80230449e-01
-1.12560957e-01 -6.38935054e-01 7.60980964e-01
2.35329720e-01 -8.50428254e-01 4.70522807e-01
-3.79791893e-01 6.27139586e-01 -6.80039744e-01
-3.84032347e-01 -7.66992912e-01 5.14043799e-01
4.72472918e-01 -8.71979263e-01 -1.28146450e-01
-9.70612581e-01 2.27341140e-01 -7.89127074e-02
-4.17105197e-01 -6.04304693e-01 6.78851302e-01
-3.90383622e-02 9.98997272e-01 -2.19192294e-02
-1.24730984e-01 7.22485268e-01 6.80042068e-01
4.38099961e-01 6.60144974e-01 6.10145095e-01
-7.75630336e-01 4.08362482e-01 4.81287499e-01
-9.94626725e-01 -1.01057201e-01 2.24747346e-02
6.89127130e-01 -6.43061747e-01 -3.34029034e-01
-9.83018211e-02 -9.37423279e-01 3.34027468e-01
3.77872184e-01 -2.16686002e-01 9.00144317e-01
-5.51171281e-01 -8.34362878e-01 6.98611103e-03
9.84843720e-01 3.93703247e-02 -1.68916641e-01
-9.91391973e-01 2.68180870e-02 -1.28151232e-01
1.61233474e-01 -7.55714390e-01 6.34743673e-01
5.09127157e-01 -3.46586055e-01 7.87824630e-01
8.00840267e-02 -6.27295481e-01 7.74652780e-01
3.66134763e-01 -3.18988230e-01 -8.74180674e-01
8.28015808e-01 2.75296970e-01 -4.88468429e-01
-2.49398949e-01 9.68375603e-01 -6.98935850e-03
9.18331283e-01 -3.57955737e-01 1.68924101e-01
-9.91737227e-01 1.01149765e-01 7.89049380e-02
-4.37314174e-01 4.33695182e-01 -7.87822822e-01
-4.66027750e-01 2.41764539e-01 -8.51098138e-01
7.53985712e-01 -6.56844319e-01 -7.81639281e-03
-5.52329800e-01 5.25189917e-01 -6.47385000e-01
2.37484463e-01 6.56604242e-01 7.15871495e-01
-2.55205833e-01 1.67669752e-01 9.52237803e-01
-1.74989946e-01 -1.68352063e-01 9.70070152e-01
-6.43271872e-01 5.79450193e-01 5.00438571e-01
-9.11175440e-01 -1.57213236e-01 3.80845517e-01
6.82190344e-01 7.26904640e-01 -7.89048891e-02
5.97763172e-01 3.14040105e-02 8.01057415e-01
-3.62145542e-01 -7.72048032e-01 -5.22295360e-01
-6.47031912e-01 6.38543322e-02 7.59784392e-01
7.30994332e-01 2.15741131e-01 -6.47381693e-01
1.05420221e-01 8.59331235e-01 -5.00436213e-01
-8.58036279e-03 9.36122777e-01 -3.51568657e-01
-5.83300059e-01 2.44285262e-01 7.74652016e-01
4.08270310e-01 -9.09444169e-01 7.89092103e-02
4.46477437e-01 4.72636174e-01 -7.59784804e-01
-7.13937543e-01 -7.00174419e-01 -6.99751543e-03
1.38917624e-01 2.94249306e-01 9.45578785e-01
-5.18775310e-01 -7.75742006e-01 -3.59300039e-01
4.09796150e-01 9.11899987e-01 2.24839793e-02
-5.63331569e-01 -4.69263842e-01 6.80036018e-01
-8.54159731e-01 2.21408922e-01 4.70520176e-01
-9.86746791e-02 4.10913340e-01 -9.06318672e-01
8.23452671e-01 2.67360722e-01 5.00443751e-01
-6.23122724e-01 -7.60844912e-01 1.81199032e-01
4.05200386e-01 -1.19995236e-01 -9.06318815e-01
-5.07065371e-01 -7.83520120e-01 3.59139150e-01
2.13267021e-01 -2.18539493e-01 -9.52238243e-01
8.33306798e-01 -1.51870170e-01 5.31540439e-01
6.74182979e-01 -7.18976749e-01 1.68966716e-01
3.74036959e-01 -6.76162251e-01 -6.34744807e-01
3.26194312e-01 -4.11375062e-01 8.51098016e-01
-2.71690462e-01 -5.33386538e-01 8.01051242e-01
9.09284753e-01 -3.69721002e-01 -1.91069692e-01
9.20576435e-01 1.70098217e-01 3.51575922e-01
-4.72220610e-01 7.16073652e-01 5.14048844e-01
7.54868972e-01 5.77189797e-01 3.11488003e-01
-5.83065676e-02 2.35713314e-01 9.70071943e-01
8.26340522e-02 2.93966123e-01 -9.52237120e-01
6.18824377e-01 6.29015224e-01 4.70527618e-01
2.15389946e-01 -9.68083605e-01 1.28145656e-01
8.92707769e-01 3.26284560e-01 -3.10823472e-01
-8.66333128e-01 -1.33503236e-01 -4.81293873e-01
2.80015186e-01 5.67014877e-01 -7.74651939e-01
3.49606775e-02 -1.14987674e-01 9.92751522e-01
-7.90758009e-01 4.93323761e-02 6.10137755e-01
-1.75590445e-01 -8.54728182e-01 -4.88474905e-01
-9.72035355e-01 -2.78804172e-02 2.33173633e-01
-1.28871427e-03 4.35590438e-01 9.00144047e-01
-8.77298429e-01 3.65139882e-01 3.11480858e-01
-2.85134028e-01 7.97600007e-01 5.31538154e-01
-5.26516395e-01 8.33214657e-01 -1.68919549e-01
-3.07996530e-01 7.89055405e-01 -5.31535230e-01
7.79787768e-01 -3.45165267e-01 5.22294919e-01
4.22182600e-01 -1.85062634e-02 9.06321892e-01
6.88453518e-01 3.52904240e-01 6.33632665e-01
5.83385240e-01 -3.33718341e-02 -8.11509697e-01
-7.69165312e-01 -6.16321876e-01 1.68914367e-01
-9.45836707e-01 -3.24548446e-01 -7.82455218e-03
9.00432038e-01 -2.45206871e-01 3.59298960e-01
-2.95890706e-01 -7.54175255e-02 -9.52239931e-01
-2.52676521e-01 -7.17600657e-01 6.49002213e-01
9.32077443e-01 -4.73714335e-02 3.59148430e-01
5.04084918e-01 -4.08417349e-01 -7.60982044e-01
-6.87385099e-01 -1.22635018e-01 7.15864772e-01
-5.19737138e-03 7.60767824e-01 -6.49003316e-01
-6.79675292e-01 -5.23250025e-01 -5.14053407e-01
6.91494526e-01 -5.20957976e-01 -5.00437923e-01
-1.19538938e-01 1.23989723e-02 -9.92752088e-01
-6.88818867e-01 -5.02737960e-01 5.22286424e-01
5.73845592e-01 5.17489828e-01 6.34748388e-01
-4.97058254e-01 4.16940544e-01 7.60982042e-01
-3.82963198e-01 2.98576169e-01 8.74180448e-01
9.31906609e-02 4.76577973e-01 -8.74179008e-01
-4.95124413e-01 5.77618670e-01 6.49005763e-01
-5.81193047e-01 7.38005715e-01 -3.42873446e-01
9.88107787e-01 1.52191486e-01 2.19262307e-02
-4.54433119e-02 9.38280718e-01 3.42876356e-01
9.58567780e-01 2.44651332e-01 -1.45923077e-01
5.10160832e-01 -8.27866728e-01 2.33179358e-01
-7.62682261e-01 5.53841370e-01 3.34029188e-01
4.55815902e-02 6.14210799e-01 7.87824479e-01
8.02220481e-01 -5.68939209e-01 -1.80970948e-01
5.35997140e-01 -5.57873365e-01 -6.33627952e-01
5.84831773e-01 -8.10843021e-01 2.24810763e-02
5.83467446e-01 8.08293507e-01 7.89135418e-02
-2.97874738e-01 1.30968488e-01 -9.45578074e-01
-6.25855704e-01 7.79630705e-01 2.19224562e-02
6.02582555e-01 7.45344716e-01 -2.85228894e-01
1.86079489e-01 -6.22973658e-01 -7.59788293e-01
9.43770634e-01 2.76665927e-01 1.80977793e-01
-7.89856041e-01 -5.08496706e-01 3.42868094e-01
4.42389710e-01 2.82716124e-01 -8.51095143e-01
4.75572382e-01 7.63478130e-01 4.36957727e-01
6.52142663e-01 -7.41091695e-01 -1.59665445e-01
7.31888511e-01 -5.90712206e-02 6.78859193e-01
-4.25016141e-01 8.30888549e-01 3.59145502e-01
7.33016297e-01 1.53445606e-02 -6.80037984e-01
3.41585087e-02 -8.75896770e-01 4.81287904e-01
8.14997681e-01 -4.60627736e-01 -3.51569164e-01
5.62443629e-01 -1.58436488e-01 8.11514046e-01
-3.86059918e-02 -7.72674951e-01 6.33626861e-01
-9.43747360e-01 1.67288210e-01 2.85228973e-01
-9.09758375e-02 8.47899001e-01 5.22293668e-01
-2.84766931e-01 3.29622382e-01 -9.00142699e-01
-4.59315815e-01 -1.57580975e-01 -8.74183743e-01
-8.59777898e-01 2.64293192e-01 -4.36956598e-01
-8.31637659e-02 5.92789081e-01 -8.01052366e-01
-1.97558581e-01 7.07197131e-01 -6.78854051e-01
-3.72231258e-02 -9.84918505e-01 -1.68967395e-01
-6.05739164e-01 -2.32335587e-01 -7.60986358e-01
8.96694589e-01 -2.58759206e-01 -3.59141332e-01
9.04798745e-02 -9.95644494e-01 -2.24819517e-02
2.01009491e-01 -8.76735634e-01 -4.36955167e-01
-6.31051005e-01 -4.10065635e-02 -7.74656755e-01
2.42511887e-01 -1.22774477e-02 -9.70070746e-01
-7.24208742e-01 4.02018685e-01 -5.60270174e-01
-3.12980023e-01 -8.82294717e-01 3.51567260e-01
8.56246344e-01 5.09145786e-02 5.14052439e-01
-7.88578950e-01 6.14883822e-01 7.81770451e-03
-1.34452777e-01 9.72324315e-01 -1.91070334e-01
4.22642153e-01 8.51090018e-01 -3.11479361e-01
-7.74828645e-01 -6.02602231e-01 -1.91078827e-01
6.88052890e-01 -2.53227326e-01 6.80043489e-01
-3.14792944e-01 6.63369542e-01 6.78856573e-01
-8.06412132e-01 -4.75492433e-01 -3.51577041e-01
-8.93824977e-01 -4.10272383e-01 -1.80979216e-01
-4.18437032e-01 -4.07878804e-01 8.11508058e-01
-5.29338249e-01 -6.61260005e-01 -5.31541366e-01
-3.53216304e-01 -6.42478450e-01 -6.80043884e-01
-1.76130296e-02 -3.04849865e-01 9.52237544e-01
2.72805079e-01 1.37172315e-01 9.52240067e-01
-7.51128454e-01 -1.85245333e-01 -6.33632550e-01
3.19436641e-01 8.67704016e-01 3.80854266e-01
-5.36341811e-01 8.22087775e-01 1.91073662e-01
-7.11486490e-01 6.78996146e-01 1.80972928e-01
2.33282450e-01 -6.73693293e-02 9.70072509e-01
-9.09962623e-01 3.42920630e-01 -2.33181172e-01
-8.05558452e-01 -3.35374199e-01 4.88466704e-01
9.26794596e-01 3.75487128e-01 7.82300197e-03
3.17551828e-01 8.17022081e-01 -4.81285525e-01
-8.83992961e-01 -4.44143544e-01 1.45921048e-01
-6.28046029e-01 -7.56783307e-01 -1.81210403e-01
5.18922401e-01 8.45162149e-01 -1.28142442e-01
1.85363603e-01 -2.67438316e-01 9.45577645e-01
1.93156123e-01 4.88180997e-01 8.51099304e-01
-1.80186914e-01 -8.46815572e-01 5.00435875e-01
-8.87833188e-01 -3.39326007e-01 3.10821629e-01
7.05098345e-02 9.73325767e-02 -9.92751094e-01
-5.19363326e-01 -7.68125378e-02 8.51094334e-01
-2.27123668e-01 -3.56375187e-01 9.06317584e-01
2.68208030e-01 -5.92272983e-01 7.59787582e-01
-6.62573502e-01 -6.57196663e-01 3.59289435e-01
3.52649581e-01 -7.09482239e-01 6.10141975e-01
-5.13664746e-01 -5.24688308e-01 -6.78859859e-01
-6.52418703e-01 5.79434663e-01 -4.88472415e-01
1.50051607e-01 9.38546172e-01 3.10830494e-01
-4.71780053e-01 -3.68415516e-01 -8.01057793e-01
-1.44019119e-01 5.66308943e-01 8.11512582e-01
5.48788538e-01 -6.83514511e-01 -4.81288958e-01
4.99461176e-01 7.27426523e-01 -4.70520127e-01
6.93216667e-01 -5.29946482e-01 4.88474549e-01
-7.72589609e-01 1.41609941e-02 -6.34747790e-01
8.84676663e-01 -4.65689568e-01 -2.19188553e-02
-6.09967533e-01 3.39808018e-01 -7.15870180e-01
-7.35087943e-01 2.38219326e-01 6.34741885e-01
-2.37862713e-01 9.02400659e-01 3.59297057e-01
-1.38214294e-01 -9.90371512e-01 7.81540247e-03
7.30690188e-01 6.70573728e-01 1.28151190e-01
-3.48530846e-01 -8.72330814e-01 -3.42877823e-01
6.16749269e-01 7.33662145e-01 2.85237091e-01
-4.12422465e-01 8.37147311e-01 -3.59293870e-01
-2.32285259e-01 -9.55663939e-01 1.80969596e-01
3.98560791e-01 6.62006097e-01 -6.34741857e-01
-3.47349315e-01 9.20061229e-01 1.81206463e-01
5.91734545e-01 -7.10493991e-01 3.80852363e-01
-1.56926336e-01 -5.95572070e-01 -7.87824877e-01
6.09607174e-01 2.21988724e-01 7.60986269e-01
5.25747048e-01 -7.91560716e-01 -3.11483035e-01
-8.10299859e-01 4.45382433e-01 -3.80852491e-01
6.61444755e-01 -3.75877677e-01 -6.49004480e-01
-7.63710413e-01 2.10880593e-01 -6.10144061e-01
9.70470543e-01 -1.59217840e-01 1.81208755e-01
-9.48383779e-01 -5.95266902e-02 -3.11488001e-01
2.85560684e-01 9.43347649e-01 1.68968363e-01
5.99268151e-01 3.58348688e-01 -7.15865843e-01
