6.82060455e-01 6.53235261e-01 3.28749495e-01
-1.81528995e-01 4.22917936e-01 8.87799270e-01
9.95087383e-01 6.90579268e-02 7.09341715e-02
1.76674786e-01 5.54441031e-01 8.13253166e-01
3.65174010e-01 7.71056794e-01 5.21649704e-01
-7.63360699e-01 4.91040815e-02 6.44103837e-01
-2.90387805e-01 8.21458407e-01 -4.90795055e-01
-4.72703564e-01 -6.38233893e-01 -6.07626210e-01
4.85590961e-01 1.78988879e-01 -8.55665579e-01
2.89576113e-01 6.94484731e-01 -6.58661737e-01
7.57026362e-01 -4.31617173e-01 4.90528507e-01
6.82952831e-01 5.47374858e-02 7.28408697e-01
-7.98337809e-01 3.91446428e-01 -4.57630864e-01
8.13804818e-01 -3.86685462e-02 5.79850379e-01
-3.33750197e-01 3.74335237e-01 -8.65149217e-01
4.79227497e-01 -4.84524248e-01 -7.31831537e-01
-1.81384382e-01 -1.23597774e-01 9.75614665e-01
2.06120542e-01 -6.41524460e-02 -9.76421196e-01
-3.18384634e-01 9.45094800e-01 -7.36603899e-02
-2.49294157e-01 8.09659548e-01 5.31322012e-01
-6.67437395e-01 -4.82169627e-01 5.67486513e-01
8.30016661e-02 3.20096248e-01 -9.43741608e-01
-7.31721729e-01 -2.87589426e-01 -6.17961185e-01
-7.19976205e-02 2.81804874e-01 9.56766656e-01
-3.81301349e-01 3.78619140e-01 8.43360447e-01
-6.09392532e-01 -4.50902762e-01 -6.52171751e-01
8.70028236e-01 -9.94448854e-02 -4.82867646e-01
3.67898306e-01 5.43835882e-01 -7.54249395e-01
8.28994817e-01 -4.43002562e-01 -3.41345057e-01
1.62482301e-02 4.93395450e-01 -8.69652722e-01
-5.94060343e-01 7.23666570e-01 3.51281102e-01
-5.12306182e-01 -3.04583509e-02 8.58262950e-01
5.05092109e-01 -2.68291847e-01 -8.20305579e-01
2.42498153e-01 -9.69887715e-01 2.26648644e-02
8.99225609e-01 6.46921287e-02 4.32675390e-01
-5.44556448e-01 -7.27309582e-01 -4.17708095e-01
-6.74906968e-01 5.28942662e-01 -5.14509044e-01
-4.68012526e-01 2.09171249e-01 -8.58610024e-01
-6.83707865e-01 -2.94140041e-01 6.67851897e-01
-6.71111000e-01 3.75564826e-01 -6.39187413e-01
-4.72590783e-01 8.47523860e-01 2.41578981e-01
-3.66709477e-01 -9.30068381e-01 2.23243891e-02
7.23902209e-01 -4.33562948e-01 -5.36645903e-01
8.94618213e-01 4.36599077e-01 9.50715773e-02
4.82715086e-01 6.28203463e-01 6.10201437e-01
-1.39923742e-01 9.72844831e-01 -1.84371729e-01
2.93100911e-01 2.60807955e-01 -9.19820735e-01
-8.77680036e-01 3.00609416e-01 3.73245005e-01
4.79015663e-01 3.29710075e-01 8.13532420e-01
9.67712610e-01 -3.49508686e-02 2.49620766e-01
-3.66840884e-01 6.82142666e-01 6.32541424e-01
5.88079254e-01 -5.61359626e-01 -5.82270067e-01
3.51605904e-01 -3.95666916e-01 -8.48422652e-01
-8.91906608e-01 -4.39460775e-01 -1.06666402e-01
2.28890764e-01 -7.39361639e-01 -6.33209295e-01
8.02601520e-01 5.55758016e-01 2.16709169e-01
-9.40904091e-01 2.76296445e-01 -1.95856240e-01
-6.26437778e-01 7.66869858e-01 1.39590825e-01
-7.87634641e-01 2.21205743e-01 -5.75064724e-01
1.40292468e-01 -8.26454353e-01 5.45245391e-01
7.09258474e-01 3.95546560e-01 -5.83518862e-01
-6.94402172e-01 5.68878283e-01 4.40661798e-01
-8.43716289e-01 -4.45614966e-01 -2.99284011e-01
3.38419404e-01 -4.03808362e-01 8.49948183e-01
6.12825062e-01 -7.84588967e-01 9.41618994e-02
1.29791698e-01 -9.75996186e-01 1.74891137e-01
-1.94281074e-01 -3.20165058e-01 9.27227118e-01
-3.13647021e-01 -9.31653616e-01 -1.83434964e-01
-2.97968463e-01 -6.70005108e-01 -6.79932838e-01
9.62975842e-01 2.56716347e-01 8.23016500e-02
-5.71995626e-01 6.82679499e-01 -4.54718371e-01
6.10046168e-01 2.92424800e-01 -7.36430882e-01
6.25954588e-01 -3.56917288e-01 -6.93390821e-01
-5.36967807e-01 -4.11487333e-01 7.36440661e-01
3.99949282e-01 5.13092839e-01 7.59457573e-01
-5.54319467e-02 -5.31335944e-01 -8.45345948e-01
7.01851147e-01 -5.89359752e-01 -4.00075487e-01
-9.59128562e-01 -2.29860154e-01 1.65037778e-01
-5.32655938e-01 -2.30404604e-01 8.14366169e-01
5.49887832e-01 -7.97659091e-02 8.31421099e-01
-6.21711394e-01 -7.48093595e-01 -2.32017378e-01
5.48242763e-01 7.33283410e-01 -4.02149136e-01
-7.08885722e-01 2.60334972e-01 6.55520369e-01
-6.80699482e-01 -6.41169081e-01 3.54332777e-01
-3.13470264e-02 -7.65081811e-01 6.43170682e-01
4.23229558e-01 8.98779033e-01 1.14331367e-01
4.00901802e-01 8.68532739e-01 -2.91422654e-01
8.70610096e-01 9.43777803e-02 -4.82835596e-01
9.20797008e-01 -2.44084183e-01 -3.04229549e-01
-8.19823739e-01 -1.15877394e-01 -5.60768836e-01
2.08911991e-01 -9.63996745e-01 -1.64521138e-01
1.73854583e-01 -3.33206428e-01 9.26687036e-01
7.53316389e-01 1.95299900e-01 -6.27990069e-01
4.80265042e-01 -8.25042852e-01 -2.97742469e-01
-8.78900909e-01 4.70213538e-01 -8.02002968e-02
-7.37075494e-01 6.32454141e-01 2.38161734e-01
-1.00334418e-02 -4.38788612e-01 8.98534857e-01
-3.95954572e-01 -8.12362677e-01 4.28121834e-01
-9.97000410e-01 -6.71992886e-02 3.84048503e-02
7.68858940e-01 -9.31749925e-03 -6.39350093e-01
-2.11488673e-01 -8.10756982e-01 5.45845293e-01
5.31599172e-02 4.29226963e-01 9.01630769e-01
5.62387876e-02 9.93491661e-01 9.90464319e-02
-4.83423990e-01 8.58824353e-01 -1.69472486e-01
-9.65531909e-01 -2.57225242e-01 -3.97996484e-02
-5.56866859e-01 3.26323136e-01 7.63814526e-01
-3.60743971e-01 -5.50002115e-01 7.53234815e-01
-2.83078505e-01 5.55021190e-01 7.82187797e-01
1.51844017e-01 -6.91313554e-01 7.06420669e-01
-4.58761805e-01 1.79119801e-01 8.70318351e-01
-8.83715196e-01 -3.62976745e-01 2.95459475e-01
3.22032642e-01 -8.51968938e-01 4.12850000e-01
4.91135358e-01 -7.52603011e-01 4.38606652e-01
-6.21364933e-01 7.38394983e-01 -2.62064098e-01
-7.60051091e-01 -4.34364515e-01 -4.83374048e-01
-8.58421644e-01 -2.72647033e-01 -4.34484039e-01
-7.67333851e-01 3.90460119e-01 5.08664579e-01
-1.90833787e-01 -5.04684135e-01 8.41948649e-01
-2.73558221e-01 2.32562977e-01 9.33316974e-01
9.04744810e-01 -3.94688411e-01 -1.60181143e-01
8.52798707e-01 -5.22125830e-01 -1.09249364e-02
-1.69943710e-01 6.92328089e-01 7.01284820e-01
-4.16823256e-01 7.00254048e-01 -5.79570179e-01
-1.47130149e-01 9.10646507e-01 -3.86101423e-01
-6.69823352e-01 -7.41508113e-01 -3.87768147e-02
-6.39005452e-01 7.66635624e-01 -6.27776441e-02
-4.30805834e-01 7.82924433e-01 4.48815079e-01
6.48875064e-01 -7.17075611e-01 -2.54488356e-01
-5.41479349e-01 6.38568695e-01 5.46836108e-01
-6.29346636e-01 4.64131301e-01 6.23301567e-01
7.32751187e-01 3.69976935e-01 5.71132418e-01
-3.66950492e-01 -7.82400438e-01 -5.03187703e-01
1.54351092e-01 6.07165532e-01 -7.79438595e-01
3.71818436e-02 9.57049170e-01 -2.87529054e-01
5.98728743e-02 6.87919821e-01 7.23312472e-01
3.74837264e-02 1.27418378e-01 9.91140650e-01
-8.91273888e-01 2.38133223e-01 -3.85905782e-01
7.78453816e-01 -5.40688591e-01 3.18851186e-01
4.16541506e-01 9.04595859e-01 -9.05432477e-02
6.42953330e-01 -6.20623517e-01 4.48818739e-01
-1.23713679e-01 9.05409880e-01 4.06111906e-01
1.44776578e-01 1.33836272e-01 -9.80370804e-01
-5.96974793e-03 -2.52272302e-01 9.67638274e-01
-9.85713999e-01 1.20881531e-01 1.17285285e-01
4.86684364e-01 -4.61789133e-01 7.41545615e-01
2.45031541e-01 9.69367049e-01 1.69017139e-02
9.57711917e-02 -6.47748600e-01 -7.55810907e-01
-4.00905327e-01 2.90131504e-02 -9.15659794e-01
3.82264006e-01 7.90639792e-01 -4.78290200e-01
5.73496770e-01 7.89873710e-01 2.17255113e-01
6.45419814e-01 2.57901403e-01 7.18971388e-01
5.79670982e-01 4.52859691e-01 6.77420935e-01
-6.07376799e-02 5.68367472e-01 8.20529693e-01
5.66655989e-01 -8.17965957e-01 -9.91641429e-02
-2.01964099e-01 -3.61822486e-01 -9.10107218e-01
-6.32090307e-01 -5.80512479e-01 -5.13291246e-01
2.45030590e-01 8.81938104e-01 4.02671186e-01
2.29810266e-01 4.42439550e-01 -8.66852586e-01
-9.32915260e-01 3.07480906e-01 1.87415686e-01
5.03052067e-02 9.94336737e-01 -9.36078635e-02
-8.36439478e-01 1.78160326e-01 5.18293561e-01
8.16243504e-01 5.77569579e-01 -1.26023787e-02
-2.08172373e-01 1.18812526e-02 -9.78019796e-01
1.63300728e-01 2.70287039e-01 9.48829694e-01
8.78275893e-01 -4.43805594e-01 1.77956155e-01
-7.19365057e-01 -6.04356245e-01 -3.42444720e-01
6.95399937e-01 6.47841045e-01 -3.10997783e-01
6.41011245e-01 5.76188272e-01 -5.07060550e-01
6.37198847e-01 -1.29686243e-01 -7.59709611e-01
-7.67775044e-01 6.22212890e-01 -1.52878991e-01
-4.67902418e-01 5.19571497e-01 7.14921386e-01
-9.31708567e-01 -2.72342514e-01 -2.40310886e-01
7.65446869e-01 -6.29058326e-01 1.35563010e-01
1.99292084e-01 -1.40881617e-01 9.69760583e-01
1.63427761e-02 -6.38200476e-02 9.97827864e-01
7.84658735e-01 4.70837602e-01 4.03264013e-01
5.70292134e-02 -1.87013285e-01 -9.80700508e-01
-1.79323471e-01 -8.01556677e-01 -5.70395374e-01
-6.75499633e-01 -1.28544861e-01 -7.26069260e-01
9.90358731e-01 -1.26000936e-01 5.75600663e-02
-1.06551237e-01 -6.80001644e-01 -7.25427620e-01
3.13556420e-01 -9.23035647e-01 2.22909838e-01
9.14989896e-01 3.92220767e-01 -9.46331424e-02
3.14835239e-01 -7.46463987e-01 5.86234973e-01
-4.15860037e-02 -8.82113009e-01 4.69200028e-01
-5.17814022e-02 -8.92566435e-01 -4.47934002e-01
9.46588200e-01 -2.39428616e-01 2.15974009e-01
9.92292889e-01 8.00548945e-03 -1.23653885e-01
4.20186266e-01 -6.60683996e-01 -6.22045505e-01
-3.90461194e-01 -8.91641986e-01 2.29163884e-01
5.35318407e-01 7.26894197e-01 4.30183721e-01
-4.84394725e-01 8.74189846e-01 3.39541193e-02
1.53192100e-01 -4.81793044e-01 -8.62790731e-01
-9.04231125e-01 -1.87221282e-01 3.83816415e-01
3.54947881e-01 2.00131126e-01 9.13213852e-01
5.51854852e-01 4.81450218e-01 -6.80926381e-01
7.91653788e-01 -5.77104070e-01 -2.00588028e-01
-1.36721801e-01 9.90484987e-01 1.56638963e-02
2.09834029e-01 -2.95771225e-01 -9.31927551e-01
-2.45742128e-01 -8.91110605e-01 -3.81488957e-01
-7.71993257e-01 -4.85454529e-01 4.10318721e-01
2.00014913e-01 8.19215566e-01 -5.37474150e-01
-1.18790463e-01 7.99059301e-01 -5.89399488e-01
7.81431174e-01 4.76599482e-01 -4.02761871e-01
-6.94349783e-02 1.82229588e-01 -9.80800947e-01
-1.92083691e-01 5.24379404e-01 -8.29535464e-01
8.95072281e-01 3.44685642e-01 -2.82907192e-01
3.70856513e-01 -2.11755335e-01 9.04226563e-01
7.07755253e-01 6.98357554e-01 1.06667981e-01
-9.82383498e-01 -8.86980560e-02 -1.64486299e-01
1.59259144e-01 -8.61702802e-01 -4.81773488e-01
-1.99485115e-01 -6.73292319e-01 7.11958181e-01
-1.36464902e-01 -1.81959303e-01 -9.73790532e-01
7.21861023e-01 -6.90030520e-01 -5.26799358e-02
7.48717806e-01 -2.14863951e-01 -6.27100348e-01
7.04219128e-01 7.00962078e-01 -1.12810957e-01
-5.03221298e-02 -9.57679531e-01 2.83406144e-01
-5.13256805e-01 3.83632945e-01 -7.67719055e-01
6.75928144e-02 7.49391846e-01 -6.58666633e-01
-9.54228857e-01 2.99056888e-01 -3.49696561e-03
7.86674951e-01 1.64160012e-01 5.95141793e-01
2.92868873e-01 -8.97269075e-01 -3.30358868e-01
-6.89314733e-01 -7.06937256e-01 1.58386270e-01
2.57391515e-02 -7.88586176e-01 -6.14385969e-01
6.93218443e-01 -1.43520208e-01 7.06293414e-01
-5.02228042e-01 -8.57639347e-01 -1.10557903e-01
9.40271875e-01 1.51865430e-01 -3.04671930e-01
-6.40815251e-01 2.09500572e-01 -7.38555993e-01
2.48815433e-01 9.45140823e-01 2.11656383e-01
-1.12149418e-01 -9.62552825e-01 -2.46811269e-01
1.40125194e-01 -9.19738255e-01 3.66671282e-01
-1.87992101e-02 -6.14192255e-01 7.88933241e-01
-2.53173368e-01 -5.25704100e-01 -8.12119995e-01
-6.65986166e-01 -9.86691778e-02 7.39410269e-01
6.39701816e-01 8.41406828e-02 -7.64003419e-01
2.89961971e-01 6.62546062e-01 6.90618617e-01
-3.23683738e-01 -1.65944200e-01 -9.31499484e-01
3.90301369e-01 -1.21243013e-02 9.20607476e-01
9.43630678e-01 -3.29860944e-01 2.74407504e-02
9.73069975e-01 -1.92035059e-01 -1.27503668e-01
-4.52113165e-01 8.10184496e-01 -3.73086689e-01
-3.63990402e-01 -1.79012024e-01 9.14038554e-01
-2.48700245e-01 6.86959109e-01 -6.82813465e-01
-8.03401562e-01 -3.17848291e-01 5.03507063e-01
-8.55991125e-01 4.39435120e-01 -2.72351943e-01
5.76241629e-01 8.17268242e-01 4.10816999e-03
4.34439891e-01 3.70882874e-01 -8.20796463e-01
-5.39396732e-02 8.01017589e-01 5.96205115e-01
9.03021850e-01 -1.40049425e-01 4.06125253e-01
5.97378728e-02 9.56229129e-01 2.86454276e-01
-8.87765775e-01 -6.80312645e-03 4.60245811e-01
4.17228202e-01 8.51633330e-01 3.17238284e-01
3.63413265e-01 -7.95957019e-01 -4.84132152e-01
-3.71375145e-01 -3.72667173e-01 8.50412084e-01
-9.90901913e-01 1.05432499e-01 -8.36515972e-02
6.47179540e-01 5.62234406e-01 5.14830397e-01
5.29061730e-01 1.28028193e-01 8.38869757e-01
-5.68007029e-01 -3.03415014e-01 -7.65054003e-01
3.94143616e-01 -9.09505304e-01 -1.32105755e-01
-7.46954144e-01 4.70454577e-02 -6.63208984e-01
3.44578686e-01 6.36984343e-02 -9.36593506e-01
6.46160260e-01 -7.11135796e-01 2.77062514e-01
6.15189279e-02 8.82908762e-01 4.65496005e-01
-1.32487720e-01 9.67945081e-01 2.13373290e-01
6.65491299e-01 -3.30903763e-01 6.69047475e-01
1.73981906e-01 7.85907957e-01 5.93361709e-01
8.92718937e-01 3.57671555e-01 2.74086214e-01
8.33721261e-01 -2.90673330e-01 -4.69486669e-01
8.68030411e-01 -3.41633738e-01 3.60291389e-01
2.86432236e-01 3.98082605e-01 8.71485260e-01
-8.00512357e-01 -1.39257673e-01 5.82913398e-01
7.86563029e-02 -9.46875597e-01 -3.11834731e-01
-3.72681120e-01 5.45417814e-01 -7.50751128e-01
-5.50064976e-01 -6.82720651e-01 4.80959863e-01
8.02956210e-01 -2.40189208e-01 5.45500441e-01
-4.36872791e-01 -8.45421061e-01 -3.07256521e-01
9.72448192e-01 2.02757776e-01 -1.15035193e-01
-5.32581552e-01 5.49570459e-01 -6.43683441e-01
3.26446279e-01 -5.90742784e-01 7.37873159e-01
4.39244151e-01 -8.96236428e-01 6.18539629e-02
-8.23549999e-01 4.75195764e-01 3.09764750e-01
5.01900999e-01 -3.65365002e-02 -8.64152727e-01
8.56830997e-01 2.65602811e-01 4.41922276e-01
-2.16469639e-01 -9.63384552e-01 1.58216813e-01
-5.84497846e-01 3.66017130e-02 -8.10569178e-01
-9.39938374e-01 1.25267991e-01 3.17528141e-01
-7.36298135e-01 5.85437274e-01 -3.39304574e-01
-3.69452384e-01 -7.07712575e-01 6.02203637e-01
8.20194291e-01 5.32338268e-01 -2.09514107e-01
5.64107397e-01 7.99370472e-01 -2.06853330e-01
-9.06222796e-01 -4.12844439e-01 9.12176758e-02
-5.39107648e-01 -8.37290492e-01 9.11534883e-02
1.64137051e-01 -5.23401129e-01 8.36128764e-01
-9.56088190e-01 7.99222687e-02 -2.81971520e-01
-2.74198695e-01 1.98870674e-01 -9.40885191e-01
5.44547634e-01 -7.09172786e-01 -4.47819586e-01
9.49927214e-01 1.64424370e-01 2.65711208e-01
-7.68575843e-01 6.38461103e-01 4.07191008e-02
4.86959883e-01 -8.34971264e-01 2.56308641e-01
3.35376860e-02 -9.94565385e-01 -9.85708279e-02
-5.47892566e-01 -7.84113638e-01 2.91514913e-01
4.76521800e-01 6.48414557e-01 -5.93703802e-01
-4.38816359e-01 -4.98317982e-01 -7.47743203e-01
-6.41664223e-03 -1.59610235e-03 -9.99977915e-01
-5.16208372e-01 -5.75990923e-01 6.33849067e-01
-8.73344318e-01 5.98078782e-02 -4.83417788e-01
2.18255374e-01 5.76058402e-02 9.74190144e-01
2.35246016e-02 8.79017296e-01 -4.76207698e-01
-3.39968865e-01 2.45412798e-02 9.40116705e-01
-5.02932542e-01 -1.41899619e-01 -8.52598004e-01
4.74619999e-01 -6.39479481e-01 6.04816340e-01
9.50017943e-01 -4.50009169e-02 -3.08934265e-01
-8.07493500e-01 -5.89230378e-01 2.76212251e-02
-7.77931449e-01 -6.07371043e-01 -1.61009710e-01
-2.90338572e-02 -9.96438370e-01 7.91770515e-02
-1.54842215e-01 7.70955230e-02 9.84926683e-01
-3.03433892e-01 8.93364277e-01 3.31401871e-01
-6.21531365e-02 6.50537394e-01 -7.56925946e-01
-9.67672994e-01 -5.21313972e-02 2.46762740e-01
2.34222000e-01 9.55815476e-01 -1.77638302e-01
-2.29287652e-01 -9.03606366e-01 3.61834469e-01
-8.68064816e-01 4.82951067e-01 1.14984678e-01
-3.90843872e-01 -3.40158905e-01 -8.55297149e-01
5.27559726e-01 -2.75254380e-01 8.03689177e-01
-6.23375509e-01 1.16338698e-01 7.73219707e-01
-8.09848806e-01 -5.44413750e-01 2.18539994e-01
-1.31395676e-01 3.58638596e-01 -9.24182169e-01
-3.12495343e-01 9.08827439e-01 -2.76365904e-01
2.94744247e-01 -5.80764251e-01 -7.58840591e-01
2.17047578e-01 9.05476185e-01 -3.64694053e-01
-1.78137174e-01 -9.82658672e-01 -5.14825893e-02
-2.51806823e-03 -3.65657251e-01 -9.30746211e-01
8.38054986e-01 2.87680504e-01 -4.63576147e-01
3.64535018e-01 -1.69930054e-01 -9.15553206e-01
-9.25070576e-01 -1.00175815e-01 -3.66346234e-01
-3.15260130e-01 9.40074674e-01 1.29882893e-01
6.15925301e-01 -5.06200381e-01 6.03653806e-01
