1.25758310e-01 6.11659381e-01 7.81061870e-01
-8.43944728e-01 9.92911747e-02 -5.27160847e-01
-8.09664284e-01 -7.55934027e-02 5.82004624e-01
4.92339637e-01 5.78896241e-01 6.49985247e-01
-2.92841176e-01 -3.89537632e-01 8.73215023e-01
-1.00658991e-01 9.80851813e-01 -1.66725780e-01
-2.28271845e-01 8.75662663e-02 -9.69651544e-01
2.48418890e-01 -8.89792503e-01 -3.82828108e-01
-7.84950656e-01 2.99524296e-01 -5.42344599e-01
-9.46023330e-01 -3.11191127e-01 9.05535260e-02
-2.50613209e-01 9.20771113e-01 -2.98954133e-01
-2.11397505e-01 8.74747206e-01 4.36037172e-01
-5.45754769e-01 4.88414004e-01 6.80884342e-01
5.34554906e-02 9.97715267e-01 -4.13128758e-02
5.35483378e-01 -2.34302626e-01 8.11393757e-01
5.81050426e-01 2.00623430e-01 -7.88752588e-01
-2.36861775e-01 8.43440813e-01 -4.82186783e-01
7.77345273e-01 -1.83380013e-01 6.01752521e-01
8.63251541e-01 -2.54299387e-01 4.36037382e-01
-6.48280402e-01 -7.51453946e-01 1.22676361e-01
6.08876733e-01 -7.93210511e-01 9.28504632e-03
-3.50360135e-01 -6.76580052e-01 6.47678322e-01
3.25801388e-01 -3.62422450e-01 -8.73214422e-01
-2.66404857e-01 -8.06926470e-01 5.27160436e-01
-6.04851565e-01 -4.03672804e-01 6.86442169e-01
-7.13328750e-01 -4.49651414e-01 5.37564601e-01
-1.40544594e-01 9.89212020e-01 4.13133556e-02
-2.76382538e-01 -8.22913346e-01 -4.96413460e-01
9.22717723e-01 -2.43348783e-01 -2.98953802e-01
7.42510132e-01 -6.63685730e-01 9.05536229e-02
-3.08774333e-01 -2.56340519e-02 9.50789831e-01
1.33079454e-01 -8.29549971e-01 -5.42343719e-01
3.14192188e-02 -9.27023556e-01 3.73684573e-01
-4.76766818e-01 -1.00940508e-01 -8.73214990e-01
-9.31621033e-01 1.57104556e-02 -3.63091494e-01
2.78502931e-01 -4.32181575e-01 8.57703447e-01
-2.70698120e-01 -9.38514871e-01 2.14271714e-01
8.36449666e-01 -4.08813617e-01 -3.64997790e-01
1.44543041e-02 9.85897279e-01 1.66726199e-01
1.34051937e-01 8.89888943e-01 -4.36036404e-01
-4.02720240e-01 7.06460078e-01 -5.82005641e-01
-1.70278424e-02 -2.43898034e-01 9.69651380e-01
-4.94555247e-01 3.20513532e-01 8.07889955e-01
8.66490147e-01 4.63596599e-01 -1.85129731e-01
-8.81966478e-01 -4.00794599e-01 -2.47989562e-01
1.62157796e-01 8.60930058e-01 4.82186975e-01
-2.89807231e-01 -9.74963656e-02 -9.52106208e-01
-8.34732073e-01 5.18602865e-01 -1.85130855e-01
6.95856206e-01 2.28429399e-01 6.80884827e-01
-8.37691456e-01 -3.28852528e-01 -4.36037890e-01
-3.42469631e-01 -9.38835078e-01 3.61005730e-02
-4.04735693e-01 -9.03246762e-01 -1.42598417e-01
1.62057230e-01 7.82069168e-01 -6.01751834e-01
-4.61870575e-01 8.86898723e-01 -9.28572318e-03
5.07961872e-01 6.81233161e-01 -5.27158531e-01
-1.06447789e-01 -4.17520903e-01 9.02410750e-01
9.83132773e-01 2.50090324e-02 1.81175328e-01
6.54342441e-01 5.42690873e-01 5.26614265e-01
-6.95746024e-01 4.70958252e-01 5.42342873e-01
7.44529511e-01 -1.80653018e-01 -6.42682112e-01
-9.01789974e-01 -1.20339632e-01 4.15082178e-01
-3.97808678e-01 7.74007637e-01 4.92605754e-01
-6.81595639e-01 -7.26104302e-01 -9.05534643e-02
-3.49771161e-01 -8.77939040e-01 -3.26929933e-01
9.84289841e-01 1.72830259e-01 3.60999931e-02
-5.13225969e-01 8.38912871e-01 1.81174767e-01
1.60643457e-01 -9.66233438e-01 -2.01461230e-01
3.83028983e-02 -2.41473217e-01 -9.69651266e-01
-5.28714575e-01 -5.54454604e-01 -6.42682654e-01
3.04829545e-01 -9.37943934e-01 1.65348502e-01
8.13172916e-01 -4.46348438e-03 -5.82005058e-01
-1.56196001e-01 2.67583997e-01 -9.50789996e-01
-5.65617511e-01 6.34176381e-01 5.27159506e-01
-2.74135932e-01 4.34964192e-01 -8.57703704e-01
3.70360028e-01 -5.75785276e-01 7.28906554e-01
6.61148660e-01 -1.01535384e-01 7.43352550e-01
-7.25868123e-01 -2.45101133e-01 6.42682582e-01
9.31214354e-01 3.63990786e-01 1.87225418e-02
2.03512517e-01 9.74875669e-01 9.05543063e-02
-1.78791727e-01 5.98310807e-01 -7.81061904e-01
8.46584241e-01 -5.05467608e-01 1.66726189e-01
9.43064482e-01 2.88598363e-01 -1.65349231e-01
8.69214541e-01 -4.24923662e-02 4.92605805e-01
1.89971916e-01 1.53907569e-01 -9.69651038e-01
3.46676716e-01 8.41142474e-01 4.15083834e-01
-5.12929069e-01 -2.80255294e-01 -8.11394321e-01
-6.49728750e-01 -1.58992069e-01 -7.43353265e-01
-4.71406426e-01 -7.31515131e-01 4.92606939e-01
-8.08001793e-01 5.53666791e-01 2.01460127e-01
8.53796475e-02 -4.30736538e-01 8.98429936e-01
-8.18536457e-01 4.36301231e-01 3.73683423e-01
8.48872261e-01 -2.16591975e-01 -4.82186482e-01
-4.18941823e-01 8.07584957e-01 -4.15083467e-01
-1.50381941e-01 -9.88450665e-01 1.87232031e-02
7.11540648e-01 -6.91853022e-01 -1.22675613e-01
4.01750882e-01 1.77258757e-01 -8.98429499e-01
-5.71516991e-01 -7.57496540e-01 3.15542899e-01
-1.50768966e-01 -9.22716465e-01 -3.54771826e-01
-1.16780686e-01 -6.03515560e-01 -7.88752968e-01
3.53035490e-01 6.75189647e-01 -6.47676527e-01
5.13759019e-01 1.99280028e-02 -8.57703066e-01
4.27238476e-01 4.41967902e-01 7.88753228e-01
-4.10998181e-02 8.42221586e-01 -5.37562651e-01
9.71143511e-01 -7.16216264e-02 -2.27487638e-01
-5.96375924e-01 1.49015464e-01 7.88752271e-01
-3.17580636e-02 -9.82200834e-01 -1.85129554e-01
-2.10764956e-01 -2.21522347e-01 9.52106076e-01
1.17570678e-01 -9.75655724e-01 1.85129808e-01
9.99012064e-01 -4.34589447e-02 -9.28527160e-03
-4.15719216e-01 1.41428506e-01 8.98429467e-01
8.71258983e-01 3.07165882e-01 3.82827511e-01
-9.59489788e-01 2.81120518e-01 -1.87242833e-02
5.00928336e-01 5.34292012e-01 -6.80883873e-01
3.47321676e-01 -7.95576100e-01 4.96413461e-01
-2.88027760e-01 9.53331005e-01 -9.05538604e-02
1.42813252e-01 -8.38022778e-01 5.26613900e-01
-7.21466562e-01 6.72417660e-01 -1.65349591e-01
-1.69616460e-01 -9.08115012e-01 3.82828138e-01
1.69136989e-01 -5.90983488e-01 7.88752936e-01
6.04706723e-02 2.99729929e-01 -9.52105703e-01
-4.18505837e-01 -5.21803059e-01 7.43353503e-01
7.88081023e-01 -5.63409026e-01 -2.47989061e-01
7.87116222e-01 4.90721917e-01 3.73684427e-01
-9.61153067e-01 -1.56315226e-01 2.27486992e-01
6.37851713e-01 -3.49204858e-01 -6.86440939e-01
1.37572215e-02 5.84338542e-01 -8.11393374e-01
-4.10451900e-01 -7.01996479e-01 -5.82005314e-01
6.51871515e-01 5.30026625e-01 -5.42342424e-01
3.28562412e-01 8.05845707e-01 -4.92604748e-01
5.43692185e-01 -8.19496356e-01 -1.81175423e-01
-7.08834337e-01 -4.56704612e-01 -5.37563747e-01
3.39365624e-01 7.38985965e-01 5.82005767e-01
8.16739390e-02 -5.83645686e-01 -8.07890516e-01
9.08860222e-01 -4.09783640e-02 -4.15082970e-01
8.37318517e-01 -5.45152209e-01 -4.13131073e-02
5.96263009e-01 -5.31379456e-01 -6.01752692e-01
7.23203101e-01 6.90381620e-01 -1.87214140e-02
-2.39621112e-01 -4.54891508e-01 -8.57703587e-01
-4.10756445e-01 6.41711236e-01 6.47677256e-01
-3.02949101e-02 -5.88553278e-01 8.07890622e-01
-8.61039320e-01 -4.80430417e-01 1.66727035e-01
-3.76980019e-01 4.79894033e-01 7.92204379e-01
7.49935177e-01 -3.85516794e-01 -5.37563053e-01
6.69146440e-01 6.52977227e-01 3.54772856e-01
3.30339233e-01 2.89308717e-01 8.98429994e-01
6.15948338e-01 -7.54226198e-01 2.27487337e-01
1.32186099e-01 2.80224145e-01 9.50789808e-01
-7.72267196e-01 -5.19980300e-01 -3.64998450e-01
-9.17104514e-01 3.43994478e-01 -2.01462426e-01
-6.58550652e-01 3.19379878e-01 6.81401151e-01
7.46074811e-01 -3.92935406e-01 5.37563153e-01
-4.89918074e-01 -7.66607063e-01 -4.15082999e-01
-9.95636600e-01 8.60491366e-02 -3.61013251e-02
-9.43521276e-01 5.37133862e-02 3.26928848e-01
7.32661992e-01 2.01807865e-01 -6.49984610e-01
-8.26666799e-01 -2.90030907e-01 4.82186764e-01
4.70297878e-01 -6.63392749e-01 5.82005126e-01
4.15610330e-01 -1.51931295e-01 -8.96763591e-01
-1.77887404e-01 9.52290641e-01 2.47989117e-01
7.55734895e-01 3.67053488e-01 5.42343529e-01
2.75797928e-01 -5.44377703e-01 -7.92204787e-01
-9.89673394e-01 1.45781241e-02 1.42597514e-01
9.26954581e-01 -3.72891932e-01 4.13136089e-02
9.71505481e-02 -6.71983483e-02 9.92998565e-01
-4.23415782e-01 7.98335625e-02 -9.02411037e-01
4.23296061e-01 -9.05271895e-01 -3.61004733e-02
9.35202873e-01 1.36058582e-01 -3.26930651e-01
8.14800253e-01 -4.50418702e-01 3.64998003e-01
2.36285883e-01 -9.71503183e-01 -1.87229832e-02
6.59867448e-01 7.32962699e-01 1.65350026e-01
-5.47597635e-01 -8.05224338e-01 -2.27487578e-01
-6.41821051e-02 9.28793570e-01 -3.64997480e-01
2.97226910e-01 -7.17661023e-02 9.52105975e-01
-5.79867450e-01 8.02134134e-01 -1.42599329e-01
-9.81550547e-01 -6.11044361e-02 -1.81176082e-01
1.13892827e-02 -7.31820812e-01 -6.81401929e-01
6.35600497e-01 -7.04588738e-01 -3.15541951e-01
9.13651033e-01 -3.22091659e-01 2.47989422e-01
1.76587739e-01 -2.54588348e-01 9.50789956e-01
-5.13532168e-01 -2.50987490e-02 8.57703190e-01
8.32021675e-01 1.72750009e-01 5.27159715e-01
-9.91378601e-01 -1.30699151e-01 9.28444624e-03
9.48126750e-01 2.34826741e-01 2.14271014e-01
7.03640200e-01 -5.61036529e-01 -4.36037254e-01
6.46373746e-01 6.60034258e-01 -3.82826016e-01
3.45203408e-01 9.10540238e-01 2.27488634e-01
-7.61247637e-01 -3.18571726e-02 -6.47678282e-01
3.62924923e-01 -2.53179784e-01 8.96763902e-01
-6.09343034e-01 3.33410292e-02 -7.92205431e-01
5.33601260e-01 -6.87465570e-01 -4.92606120e-01
6.04090022e-01 8.65265114e-02 7.92204775e-01
-8.87089249e-01 4.61597944e-01 -1.22393252e-06
-6.83825080e-01 -3.28482164e-02 7.28906202e-01
1.87174061e-01 6.42178871e-01 -7.43351982e-01
-1.91561023e-01 -7.35407602e-01 -6.49984644e-01
-5.85431884e-01 7.41879847e-01 -3.26930880e-01
3.77976400e-02 4.40892596e-01 8.96763655e-01
-3.79193541e-01 -8.51103448e-01 3.63091146e-01
2.12245409e-01 -7.00961874e-01 -6.80884970e-01
-7.47509994e-01 1.36930057e-01 6.49983819e-01
5.18277092e-01 7.90256057e-01 3.26931519e-01
-8.90774389e-01 -4.52564055e-01 -4.13130263e-02
1.42571021e-01 -4.06606460e-01 -9.02410491e-01
-2.27109992e-01 -5.66420290e-01 7.92205217e-01
7.68258888e-01 3.63945395e-01 -5.26613741e-01
6.13264282e-01 7.60260153e-01 -2.14269499e-01
4.66833407e-01 -4.14739582e-01 7.81061872e-01
7.77223650e-01 5.06244936e-01 -3.73683640e-01
-9.08978105e-02 -7.54409912e-02 -9.92998615e-01
7.56461396e-01 6.22238043e-01 -2.01459610e-01
-4.23546347e-01 8.76845292e-01 -2.27488074e-01
6.28080709e-01 3.75775016e-01 -6.81401323e-01
-6.99314279e-01 4.83359507e-01 -5.26614779e-01
8.50854782e-01 1.72102675e-01 -4.96413951e-01
4.14808029e-01 1.16573383e-01 9.02410628e-01
-7.62271057e-02 4.35894729e-01 -8.96763745e-01
-4.73646756e-02 -4.36555034e-01 -8.98429905e-01
-9.27991584e-01 -1.98152773e-01 -3.15542549e-01
-7.97156421e-01 2.95331196e-01 5.26612877e-01
2.35028976e-01 4.57281187e-01 8.57703499e-01
6.05866241e-01 4.10630314e-01 6.81402114e-01
2.30921257e-01 -9.05986864e-01 3.54772008e-01
-1.90929507e-01 4.48378062e-01 8.73214196e-01
-7.58319166e-01 -2.50689146e-01 -6.01753269e-01
4.62556104e-01 -4.83185945e-01 -7.43352674e-01
4.82210160e-01 -8.64372075e-01 1.42598318e-01
3.51772228e-01 -9.11232107e-01 -2.14271674e-01
-4.00722625e-01 -1.87711016e-01 8.96764155e-01
-3.70254270e-01 8.73696307e-01 3.15541653e-01
9.62005012e-03 1.17734973e-01 9.92998453e-01
-4.64268502e-01 4.02892868e-01 -7.88753508e-01
-7.01643594e-01 6.00948961e-01 3.82827128e-01
-4.71658762e-02 7.25654361e-01 6.86440911e-01
4.79417254e-01 7.98952717e-01 -3.63089041e-01
4.52204275e-01 -8.14663300e-01 -3.63090907e-01
-6.51854869e-01 -6.20447884e-01 4.36038590e-01
-9.03728769e-01 3.86007469e-01 1.85128452e-01
-3.27466758e-02 8.42587416e-01 5.37563109e-01
-8.97887852e-01 -3.23146749e-01 2.98954148e-01
4.25242583e-01 -8.43970155e-01 3.26929846e-01
-6.12009760e-01 -6.26849128e-01 -4.82186923e-01
9.69622532e-01 -2.27227240e-01 -9.05534594e-02
1.50967379e-01 4.63363894e-01 -8.73214037e-01
-8.62162906e-01 -1.18379848e-01 -4.92606675e-01
-1.06771461e-01 -5.05350832e-02 9.92998518e-01
8.99771731e-01 -4.03253455e-01 -1.66725782e-01
-1.98833589e-02 1.16441430e-01 -9.92998514e-01
-5.92591574e-01 -1.96919147e-01 7.81062144e-01
-3.08360325e-01 3.00948133e-01 9.02410177e-01
-5.41100497e-01 5.33600340e-01 -6.49985330e-01
2.19735835e-01 1.07202904e-01 9.69651327e-01
4.64615457e-01 3.62555325e-01 -8.07889915e-01
-4.70652824e-01 -3.46589939e-01 8.11394683e-01
3.33546625e-01 5.11037543e-01 -7.92204064e-01
-5.74472175e-01 6.50810699e-01 -4.96414296e-01
9.26674209e-01 9.71610301e-02 3.63090406e-01
-8.94792191e-01 2.29758475e-01 -3.82828914e-01
9.84602422e-01 1.01111782e-01 -1.42599014e-01
-3.26639231e-01 9.37153968e-01 1.22675382e-01
-1.65046998e-02 7.26998594e-01 -6.86440557e-01
-2.29861608e-01 7.64890533e-01 6.01752531e-01
-8.27032056e-01 4.19972700e-01 -3.73685574e-01
-1.50101766e-01 -7.16843715e-01 6.80885121e-01
-8.62650550e-01 9.69984315e-02 4.96412460e-01
-5.99895177e-02 -8.38012253e-01 5.42343732e-01
-7.35764781e-01 -6.30199211e-01 2.47990206e-01
1.10784272e-01 -4.09999595e-02 -9.92998415e-01
4.37875477e-02 -9.99040867e-01 1.70921673e-07
6.07548841e-01 -1.44316218e-01 -7.81061610e-01
-3.39380718e-01 -2.83962510e-01 -8.96764197e-01
3.09833763e-01 1.47926218e-03 -9.50789595e-01
6.84076574e-01 2.71082613e-02 -7.28906295e-01
-7.80833421e-01 6.24458691e-01 1.87218974e-02
-3.54384067e-01 2.59296942e-01 -8.98430315e-01
4.99173584e-01 -3.04082277e-01 -8.11393681e-01
-6.72104639e-01 -6.77422906e-01 -2.98954115e-01
-5.46287930e-01 2.21091200e-01 -8.07891193e-01
5.07461841e-01 8.49792718e-01 1.42600185e-01
-9.65036263e-01 1.50971268e-01 -2.14272462e-01
-4.69908280e-01 -8.63922195e-01 1.81175745e-01
5.26839455e-02 -7.30010815e-01 6.81401947e-01
4.37858408e-01 8.80599824e-01 -1.81173847e-01
-1.53634886e-01 -2.69062546e-01 -9.50790025e-01
-7.54900610e-02 -9.76583104e-01 2.01461397e-01
1.50669422e-01 7.51171068e-01 6.42682462e-01
3.35983484e-01 -7.80523674e-01 -5.27160219e-01
4.08213168e-01 -6.43331665e-01 -6.47677684e-01
-8.64624162e-02 2.93290032e-01 9.52105668e-01
4.98085586e-02 -9.26217615e-01 -3.73684413e-01
-7.86410822e-01 -6.16320684e-01 4.13138618e-02
2.29339368e-01 -2.02232782e-01 -9.52105751e-01
-6.21345669e-01 -3.77792909e-01 -6.86441607e-01
-2.42642602e-01 6.23339186e-01 7.43352422e-01
-4.28755575e-01 -4.53993974e-01 -7.81062182e-01
6.64507618e-01 -5.70899034e-01 4.82186602e-01
-7.23711272e-01 5.91927470e-01 -3.54772975e-01
-3.65513451e-01 5.78873541e-01 -7.28906950e-01
-3.18561948e-01 -6.05981266e-01 -7.28906712e-01
-6.41821504e-01 7.66003905e-01 3.60994752e-02
3.13464756e-01 6.08633382e-01 7.28906886e-01
5.55111678e-01 -7.20803275e-01 4.15082720e-01
2.80846920e-01 3.26773676e-01 -9.02410092e-01
-6.89446182e-02 -8.47304298e-01 -5.26613778e-01
8.74480048e-01 3.30788485e-01 -3.54772638e-01
2.55169756e-01 -7.15827051e-01 6.49984638e-01
5.72339812e-01 8.19221604e-01 -3.60985015e-02
-7.13172831e-01 1.66670853e-01 -6.80885703e-01
-2.21598366e-01 -9.61017207e-01 -1.65348406e-01
-5.47481806e-01 7.53942421e-01 3.63090200e-01
-6.39469332e-01 3.56046756e-01 -6.81402731e-01
-9.00068960e-01 2.53009060e-01 3.54770743e-01
7.61116396e-01 3.48690872e-02 6.47677371e-01
5.24849936e-01 2.68039664e-01 8.07890636e-01
2.43391461e-01 9.62139035e-01 -1.22674654e-01
4.83770913e-01 -5.88395407e-02 8.73214526e-01
-5.47483835e-01 -5.81510007e-01 6.01753738e-01
8.43300902e-01 5.37441707e-01 2.47876297e-07
9.38856157e-02 9.64202895e-01 -2.47988441e-01
-2.02708630e-01 1.36696604e-01 9.69651095e-01
9.41770036e-01 -1.16199888e-01 3.15542048e-01
9.74918467e-01 -1.85700356e-01 1.22675839e-01
5.75198362e-01 -5.06069409e-01 6.42682346e-01
2.92391473e-01 9.02740985e-01 -3.15540707e-01
-6.77429963e-01 7.03687947e-01 2.14270659e-01
3.82501283e-01 9.23908290e-01 9.28642171e-03
1.69090192e-01 9.39167048e-01 2.98954442e-01
7.86156744e-01 5.89647723e-01 1.85130048e-01
-5.37142701e-01 -8.43440282e-01 -9.28505058e-03
-6.48299453e-02 5.80893731e-01 8.11393583e-01
-7.99113159e-01 -5.77598969e-01 -1.66726097e-01
5.15327862e-01 6.98576976e-01 4.96414544e-01
-2.15813787e-01 7.35107977e-01 -6.42682403e-01
-9.54932148e-01 -2.70287191e-01 -1.22676106e-01
-7.97473130e-01 -4.80428752e-01 3.64999756e-01
-9.64698562e-01 2.04980438e-01 1.65347219e-01
8.83490589e-01 4.22915988e-01 2.01460779e-01
6.52017879e-01 -3.21980554e-01 6.86440972e-01
-1.73277615e-02 9.30847044e-01 3.64997979e-01
7.28796487e-01 -6.16021290e-01 2.98953930e-01
