-1.93628374e-01 -8.22793831e-01 5.34339193e-01
-9.10011983e-02 -7.49069999e-01 -6.56211026e-01
3.90376884e-01 -4.85446608e-01 7.82270726e-01
-7.29557704e-01 -5.60211069e-01 -3.92312520e-01
-3.92448552e-01 2.41699587e-01 -8.87448834e-01
3.67092383e-01 -9.11778136e-01 -1.84129870e-01
5.07937717e-01 -7.88568995e-01 3.46638455e-01
9.08849436e-01 -1.42931749e-01 -3.91871418e-01
1.98662693e-01 -1.36204494e-01 -9.70557291e-01
-7.58519863e-01 -1.43214618e-01 6.35717864e-01
-5.20107119e-01 7.70069005e-01 -3.69435121e-01
9.31615317e-01 -3.57316039e-01 -6.64691219e-02
1.93293964e-01 3.92681196e-01 8.99132322e-01
9.75682391e-01 -5.57186231e-02 -2.11988914e-01
4.95892038e-01 3.09990497e-01 8.11170134e-01
-9.13418006e-01 4.01558908e-01 6.64680046e-02
-3.07583391e-01 -5.49130940e-01 -7.77076354e-01
6.94213704e-01 2.95727387e-01 -6.56210815e-01
3.51557297e-01 9.28027547e-01 -1.23176035e-01
-2.47273436e-01 9.59784166e-01 1.32929320e-01
8.59167514e-01 3.62231689e-02 5.10410686e-01
2.48597191e-01 5.71185601e-01 -7.82270051e-01
7.30838486e-01 -1.18074611e-01 -6.72259979e-01
-2.46951982e-01 9.40480743e-01 -2.33475243e-01
-6.42092326e-02 7.17899659e-01 -6.93179085e-01
-8.43285176e-01 -3.76882068e-01 3.83184066e-01
-5.36094219e-01 -8.17107623e-01 -2.11986135e-01
-3.14851550e-01 -3.36601907e-01 8.87450096e-01
8.51006700e-01 5.08052879e-01 -1.32928033e-01
6.86859213e-01 5.56175026e-01 -4.67860826e-01
4.03128576e-01 9.06815701e-01 1.23177246e-01
-5.78820902e-01 2.59366245e-01 -7.73107694e-01
5.55085651e-01 -4.76287859e-01 -6.81930923e-01
7.16866607e-01 -6.96371716e-01 3.41862255e-02
9.20875173e-01 -2.17110343e-01 3.23808609e-01
-1.23038108e-01 -6.01357173e-01 -7.89449913e-01
6.29352090e-01 8.19176761e-03 -7.77077105e-01
1.86261490e-02 2.40155307e-01 -9.70555759e-01
4.76696380e-02 5.18868499e-01 8.53523929e-01
-6.03214648e-01 4.53346221e-01 -6.56208264e-01
2.62411304e-02 -8.39169970e-01 5.43235834e-01
5.20226078e-01 6.42907247e-01 -5.62169982e-01
-7.12408591e-01 -5.23050534e-01 4.67859112e-01
-1.95902710e-01 8.16406389e-01 -5.43233586e-01
2.73897513e-01 9.22762517e-01 2.71089452e-01
-6.78036311e-01 2.44461798e-01 6.93184826e-01
-6.61901217e-05 -1.17332091e-01 -9.93092726e-01
1.44853375e-02 -9.91019863e-01 -1.32927820e-01
-3.35674364e-01 -5.13899154e-01 7.89449425e-01
-4.39591962e-01 8.72823628e-01 -2.11985421e-01
-2.56879872e-01 3.92596783e-01 -8.83108422e-01
-4.41459755e-01 4.48623922e-01 7.77077779e-01
5.83760403e-01 -8.02527984e-01 1.23177215e-01
1.82760418e-01 -4.87948582e-01 -8.53524926e-01
2.55235541e-01 7.28506479e-01 6.35714665e-01
-5.89610733e-01 -4.14555383e-01 -6.93183246e-01
-5.30000961e-01 -2.40116590e-01 -8.13291458e-01
8.46514962e-02 9.19483360e-01 -3.83906848e-01
4.05678482e-01 7.85320300e-01 -4.67650495e-01
-2.87195818e-01 -9.57741474e-01 1.58061251e-02
-7.85097065e-01 -5.47153106e-01 2.90251763e-01
-2.72416971e-01 9.06054354e-01 3.23812455e-01
1.55734129e-01 1.83758847e-01 9.70556325e-01
3.34074688e-01 -8.61140133e-01 -3.83186335e-01
-6.09074967e-01 -5.77859540e-01 -5.43236626e-01
1.34934498e-01 7.18866892e-01 -6.81925995e-01
-8.15648982e-01 5.76942454e-01 4.30598059e-02
-7.19126654e-01 4.83325257e-01 -4.99252989e-01
9.75853076e-01 1.17831651e-01 1.83919747e-01
-1.01583146e-01 5.87271208e-02 -9.93092129e-01
8.59601272e-01 -4.59349209e-01 -2.23794438e-01
-9.77290657e-01 7.54362024e-02 1.98021108e-01
6.73863479e-01 3.06557860e-01 6.72257611e-01
3.85473204e-01 -1.54956474e-01 -9.09614691e-01
-4.06847361e-01 -8.35459125e-01 -3.69436427e-01
-6.02416261e-01 4.30302772e-01 6.72260503e-01
-7.46401835e-01 5.37885930e-01 3.91871199e-01
8.49933882e-01 -3.51711557e-01 -3.92315392e-01
4.09898667e-01 6.05770793e-01 6.81927295e-01
-1.75484517e-01 -9.72303963e-01 -1.54370295e-01
6.09204267e-01 -5.94104423e-01 -5.25271440e-01
2.44639014e-01 9.69011249e-01 3.41899129e-02
-1.03822265e-01 6.25717162e-01 7.73109941e-01
-4.25786832e-01 -4.00881148e-01 -8.11171912e-01
5.78731560e-01 7.19888496e-01 -3.83184453e-01
8.38326036e-01 1.91544604e-01 -5.10411707e-01
6.27915286e-01 -7.68471842e-01 -1.23180430e-01
-9.12807045e-01 1.41251515e-01 -3.83185735e-01
-3.13552504e-01 6.97838017e-02 -9.47003187e-01
-8.09972875e-01 2.04357370e-01 5.49710851e-01
1.01646214e-01 5.86141759e-02 -9.93092348e-01
7.28614522e-02 6.91980601e-01 7.18229814e-01
2.89968587e-01 -3.27835694e-01 -8.99134007e-01
-4.62369710e-01 -5.96323720e-01 6.56210549e-01
-3.30644762e-01 8.58553644e-01 -3.91866913e-01
4.38248100e-01 -6.35454077e-01 -6.35717475e-01
-4.56690257e-01 5.99655945e-01 6.57150490e-01
-1.07410033e-01 -2.74812317e-01 -9.55479598e-01
3.30993291e-01 2.51093291e-01 9.09612891e-01
8.09476323e-03 8.35320116e-01 -5.49704257e-01
2.09907016e-01 8.24642231e-01 -5.25265863e-01
2.28008522e-01 -8.03638490e-01 5.49706557e-01
-9.02377592e-01 -3.89631180e-01 1.84125590e-01
3.70358535e-01 -5.00881890e-01 -7.82273530e-01
1.38930247e-01 4.15043695e-01 -8.99131305e-01
8.30323950e-01 -5.55584000e-01 -4.34574824e-02
7.08108952e-01 6.69701126e-01 2.23790333e-01
-7.27451991e-01 -4.10650049e-01 -5.49709136e-01
-4.73185528e-01 -2.18155007e-01 8.53524378e-01
-3.21769950e-01 5.40944000e-01 -7.77073792e-01
-5.16401787e-01 2.74457942e-01 8.11173253e-01
-2.18175888e-01 -9.14238943e-01 -3.41418268e-01
-1.04054451e-01 7.69297467e-01 6.30360284e-01
-6.82668866e-01 6.46063397e-01 -3.41416615e-01
5.98348861e-01 -6.50600140e-01 4.67651690e-01
5.19597197e-02 -4.12194413e-01 9.09613086e-01
4.28951345e-01 8.34172318e-01 3.46637117e-01
-8.51430291e-01 3.48073537e-01 3.92315284e-01
-4.25589743e-01 8.91651568e-01 1.54372459e-01
-3.85881339e-01 -9.04029295e-01 1.83920175e-01
-2.11555913e-01 -4.18759789e-01 -8.83110595e-01
-2.37003178e-01 4.29864240e-02 9.70557405e-01
-8.13048729e-02 9.53488959e-01 2.90255623e-01
6.62185765e-01 -6.98584712e-01 2.71089309e-01
7.28638840e-01 6.20352973e-01 -2.90254407e-01
-9.99370046e-01 9.52836782e-03 -3.41866247e-02
5.07941361e-01 8.60712905e-01 -3.41886807e-02
8.44989723e-01 -2.17283251e-02 -5.34340936e-01
1.72922744e-01 -9.41196094e-01 -2.90254429e-01
-8.82942620e-01 -4.13313578e-02 -4.67658044e-01
-2.85244941e-01 6.98585082e-01 6.56212021e-01
-5.92407785e-02 9.92983373e-01 1.02345255e-01
-9.45367377e-01 3.09526738e-01 -1.02341218e-01
-9.10823702e-01 1.51691546e-01 3.83913882e-01
-9.15769013e-01 -2.02986074e-01 -3.46646460e-01
-3.98213077e-01 -7.62172220e-01 5.10411463e-01
-7.75252798e-01 -6.28144354e-01 -6.64663323e-02
6.33674352e-01 -6.91589567e-01 -3.46642004e-01
8.51078675e-01 -1.62513353e-01 4.99253945e-01
4.54609927e-01 8.48434404e-01 -2.71088306e-01
8.04473115e-01 5.90258672e-01 6.64658152e-02
9.63438165e-02 -3.06432285e-01 -9.47004282e-01
9.07473897e-01 4.17896145e-01 4.30573243e-02
-3.19953582e-02 9.74112315e-01 -2.23788942e-01
8.04976723e-01 -2.38545523e-01 -5.43238896e-01
9.39671766e-01 -2.12170117e-02 3.41418821e-01
7.27157199e-01 5.63324030e-01 3.92311670e-01
7.46438941e-01 1.04800632e-01 -6.57149695e-01
-7.39861218e-01 3.96858481e-01 5.43239114e-01
-4.63979751e-01 5.94038065e-01 -6.57146529e-01
-8.50909465e-01 6.45262810e-03 5.25272745e-01
4.77265086e-01 -7.43987136e-01 -4.67654970e-01
2.71912027e-01 -1.71026395e-01 9.47002552e-01
-1.44299556e-01 -4.46423858e-01 8.83110067e-01
-1.67788261e-01 -6.06630000e-01 7.77076029e-01
-9.80937819e-01 1.89400289e-01 4.34572339e-02
7.78133771e-01 3.81118448e-01 -4.99255999e-01
7.19357535e-01 -4.24668861e-01 -5.49710001e-01
2.07682857e-01 -5.43533989e-01 8.13288783e-01
8.09374546e-01 2.43709824e-01 5.34339189e-01
2.96658140e-01 -7.71982003e-01 -5.62172328e-01
6.71304299e-01 -4.83028311e-01 5.62169185e-01
-4.89974816e-01 -4.02774599e-01 7.73108864e-01
5.07459645e-01 -8.17920283e-01 -2.71092444e-01
-1.20377459e-01 9.11922325e-01 -3.92309744e-01
6.53819771e-01 -3.03340629e-01 -6.93184071e-01
1.21602456e-02 3.20992587e-01 9.47003643e-01
7.18261086e-01 -2.94535420e-01 6.30356966e-01
9.26951676e-01 6.53885147e-02 -3.69438658e-01
-1.93955291e-01 -9.57832260e-01 2.11987524e-01
-3.26935168e-01 -2.56349757e-01 -9.09614307e-01
9.00841966e-01 2.68172807e-01 -3.41419227e-01
4.48933541e-01 -1.04371177e-01 8.87448783e-01
9.52522635e-02 9.18746839e-01 3.83185669e-01
1.24273680e-01 -9.11398661e-01 3.92311788e-01
-5.66279066e-01 -6.55798735e-01 4.99255494e-01
-6.12693722e-01 6.98656539e-01 3.69439374e-01
-6.18955527e-01 -7.02975347e-02 -7.82273804e-01
4.72948018e-01 -3.38935538e-01 -8.13291375e-01
-7.14441886e-02 -7.36861687e-01 6.72257832e-01
3.24043116e-01 -8.64644289e-01 3.83909255e-01
-7.29558107e-01 5.20958579e-02 6.81931817e-01
-5.13957460e-01 8.57026422e-02 -8.53523741e-01
-6.14204000e-01 -4.74764906e-01 6.30358424e-01
9.72398527e-01 1.43577750e-01 -1.83919892e-01
5.93801733e-01 -2.22945148e-01 7.73107348e-01
6.47948128e-02 -6.30953773e-01 -7.73109926e-01
4.35092918e-01 5.42993316e-01 -7.18228654e-01
2.17206615e-01 2.36657580e-01 -9.47002884e-01
-7.53965159e-01 -3.39853319e-01 5.62171035e-01
-2.63163795e-01 6.91966288e-01 -6.72255506e-01
4.19867534e-01 -7.40138279e-01 5.25268110e-01
6.54499489e-01 7.54812705e-01 4.34533817e-02
7.47664306e-01 9.56776003e-02 6.57148299e-01
-9.61509797e-01 -2.72635959e-01 3.41840472e-02
2.64261950e-01 8.43485323e-01 4.67651725e-01
4.68433984e-01 2.61699268e-02 -8.83110822e-01
3.26438715e-01 -9.44219014e-01 4.34536328e-02
-1.56367338e-01 9.85460149e-01 -6.64646500e-02
9.73026688e-01 2.30150502e-01 1.58052584e-02
-9.01563528e-01 3.20838838e-01 -2.90251003e-01
-8.30332835e-01 -5.47789677e-01 1.02341871e-01
5.14024420e-01 3.71593475e-01 -7.73108771e-01
5.03288383e-01 -5.85293031e-01 6.35714463e-01
5.70530552e-02 5.79058337e-01 -8.13287391e-01
-6.90019033e-01 -2.42575171e-01 -6.81931825e-01
9.54833323e-01 -2.65752201e-01 1.32925127e-01
-2.98710110e-01 -8.79936436e-01 3.69437609e-01
1.02420625e-01 -7.69516889e-01 -6.30360028e-01
2.04619011e-01 -9.73476634e-01 -1.02344039e-01
4.23314095e-01 -8.84078502e-01 1.98016113e-01
5.60065990e-01 -1.68300581e-01 -8.11172600e-01
-2.82460861e-01 -6.98835663e-01 -6.57148819e-01
8.89567227e-01 -4.45192770e-01 1.02340334e-01
8.12771784e-02 -2.26748238e-01 9.70556165e-01
-4.69773622e-01 -8.82645448e-01 -1.58037596e-02
-3.82945920e-01 1.61098725e-01 9.09615104e-01
-9.62068203e-01 -3.05150911e-02 -2.71097037e-01
1.75287653e-01 9.64398668e-01 -1.98013744e-01
-9.73170513e-01 1.37971523e-01 -1.84127712e-01
1.27309318e-01 -7.09430905e-01 6.93181172e-01
-5.74551241e-01 9.19079259e-02 8.13291964e-01
6.59834621e-02 9.96874166e-01 -4.34520289e-02
2.82096196e-01 8.94575469e-01 -3.46635917e-01
2.25222552e-01 5.80798209e-01 7.82271213e-01
2.91699394e-01 4.43907275e-02 -9.55479415e-01
-2.84799024e-01 8.18310228e-01 4.99257343e-01
-7.32531751e-01 6.46883104e-01 2.11989360e-01
-1.17027565e-01 -2.70858302e-01 9.55479117e-01
-6.85833973e-01 7.27586357e-01 1.58068631e-02
-1.34280017e-01 5.69187274e-01 -8.11168733e-01
-5.89975572e-01 7.86194559e-01 1.83921026e-01
-6.87790231e-01 1.05308576e-01 -7.18230252e-01
3.19664117e-01 -6.57867251e-01 6.81927812e-01
-5.29510678e-01 8.48156052e-01 -1.58036311e-02
2.25924059e-01 -9.48090737e-01 2.23790698e-01
-2.77209485e-01 5.47651891e-01 7.89450644e-01
-3.14460622e-01 3.48179172e-01 8.83111429e-01
-9.86889166e-01 -1.04288772e-01 1.23181303e-01
-6.48461271e-01 -6.88944733e-01 3.23810351e-01
7.13621765e-01 4.42310757e-01 5.43235838e-01
-4.51463325e-01 8.24386375e-01 3.41420529e-01
4.05537784e-01 2.19024844e-01 -8.87449835e-01
-8.25063825e-02 -8.34259582e-02 9.93092554e-01
-7.54301254e-01 6.38122177e-01 -1.54368734e-01
9.37954229e-01 -2.56376860e-01 -2.33479683e-01
-8.07139339e-01 4.93634171e-01 -3.23807647e-01
-4.60953929e-01 7.25947858e-01 5.10412766e-01
-1.30910370e-02 -4.60716659e-01 -8.87450716e-01
-7.69442214e-01 -6.18071385e-02 -6.35718925e-01
-9.18267683e-02 -9.94843646e-01 4.30577208e-02
7.48032263e-01 -5.41865710e-01 3.83183099e-01
-8.38618787e-01 -3.86432227e-01 -3.83912311e-01
-8.62608370e-01 -1.92886138e-01 4.67655589e-01
-7.17633098e-01 2.96061055e-01 -6.30357504e-01
2.43428461e-01 -3.63737043e-01 8.99131781e-01
-3.61855916e-01 -9.13911619e-01 -1.83918048e-01
3.31194994e-01 6.97264848e-01 -6.35713455e-01
-2.39339002e-02 -9.45819023e-01 -3.23810964e-01
7.40747444e-01 6.63941950e-01 -1.02344054e-01
8.39025177e-01 3.77459184e-01 3.91869005e-01
6.06078095e-01 7.73799641e-01 -1.84128900e-01
9.29782730e-01 3.34176087e-01 -1.54371015e-01
4.58765972e-01 9.82426211e-02 8.83109382e-01
-5.59402937e-01 -8.14394054e-01 1.54371907e-01
1.13750919e-01 9.76297518e-01 1.84130081e-01
-5.85395068e-02 4.11314033e-01 -9.09611939e-01
-1.76051493e-01 2.36778566e-01 9.55479878e-01
-8.96312616e-01 -4.41288150e-01 -4.34564898e-02
-8.46902681e-01 4.77748315e-01 2.33478913e-01
-9.36083939e-01 -2.24177466e-01 2.71092847e-01
-2.53281306e-01 -8.21784331e-01 -5.10410706e-01
9.26484875e-01 3.10945702e-01 2.11987134e-01
-8.19109536e-01 -2.30536678e-01 -5.25273648e-01
-4.36715021e-01 -2.89469373e-02 8.99134072e-01
-2.84064537e-01 -1.49969320e-01 9.47003990e-01
4.31045034e-01 7.33685678e-01 5.25267084e-01
-4.41312732e-01 -7.20919579e-01 -5.34338870e-01
-9.22837044e-01 -3.30393027e-01 -1.98020808e-01
-6.34708666e-01 -7.71551055e-01 -4.30567204e-02
5.50731217e-01 4.64968481e-01 6.93180673e-01
1.13505194e-01 -2.97436197e-02 9.93092091e-01
8.37195913e-01 4.94562021e-01 2.33476786e-01
-4.88211110e-01 -8.03170328e-01 3.41419601e-01
8.26632860e-02 8.22879287e-01 5.62171209e-01
-9.36887653e-01 -4.56034279e-02 3.46643711e-01
-5.85046869e-01 6.30240498e-01 -5.10408729e-01
5.82309295e-01 1.94126475e-01 -7.89449671e-01
6.12888409e-01 -3.37544584e-02 7.89448189e-01
7.47617425e-01 -1.02263474e-01 6.56209093e-01
6.15210165e-01 4.73459504e-01 -6.30359056e-01
-5.90096253e-02 -8.64442738e-01 -4.99256058e-01
-8.16885356e-01 1.29077974e-01 -5.62171849e-01
-4.03678851e-01 7.42648990e-01 -5.34336839e-01
7.53967437e-01 -5.33051567e-01 -3.83912911e-01
8.66398087e-01 -4.06335780e-01 2.90250908e-01
-5.78207071e-01 -7.15622610e-01 -3.91868423e-01
5.53977474e-01 8.08640217e-01 1.98015045e-01
-2.17291207e-01 -1.03941781e-01 -9.70556863e-01
4.25522284e-01 -3.00716379e-01 8.53522381e-01
-4.59272645e-01 4.07236237e-01 -7.89447449e-01
-8.27608896e-01 -5.14762793e-01 -2.23791831e-01
5.86782037e-01 7.12952595e-01 3.83908114e-01
9.84987698e-01 -7.72593900e-02 1.54370394e-01
-3.50832791e-01 9.35447773e-01 -4.30559762e-02
1.08944016e-01 -9.91823322e-01 6.64657805e-02
-6.10546312e-01 7.70329532e-01 -1.83917409e-01
-9.34032698e-01 2.78386662e-01 2.23794086e-01
-4.28899942e-01 -8.71995181e-02 -8.99133513e-01
7.47547328e-01 -6.34004026e-01 -1.98019902e-01
2.52696531e-01 -6.48296802e-01 -7.18230958e-01
1.38230852e-01 -8.72924973e-01 -4.67861322e-01
2.05151816e-02 -5.84449693e-01 8.11170571e-01
-9.26240274e-02 -9.15346701e-01 3.91868871e-01
-1.34075787e-01 4.40970416e-01 8.87450724e-01
-3.09905897e-02 1.13166530e-01 9.93092611e-01
-7.07565550e-01 -6.94032665e-01 1.32927269e-01
5.62844617e-01 -4.09089562e-01 7.18228150e-01
9.11402119e-01 1.81278883e-01 3.69437605e-01
4.91429284e-01 -8.70246135e-01 -3.41894878e-02
5.81967102e-01 5.99281104e-01 5.49705789e-01
-8.65494273e-01 4.82960376e-01 -1.32924565e-01
3.31195785e-01 4.02253856e-01 -8.53522802e-01
8.31070556e-01 4.52181504e-01 -3.23811072e-01
-2.90971608e-01 -6.95334940e-01 6.57149037e-01
-9.79473373e-01 -1.59554024e-01 -1.23184532e-01
6.09252211e-01 1.58004958e-01 7.77075405e-01
-6.91005844e-01 -6.84105052e-01 -2.33476339e-01
-6.15745430e-01 5.79082835e-01 5.34341319e-01
9.99280186e-01 3.44860800e-02 -1.58055593e-02
7.88621034e-01 -5.86663662e-01 1.84126621e-01
-1.84291765e-01 2.30430207e-01 -9.55478128e-01
3.66874504e-01 4.51624585e-01 8.13288597e-01
8.09179729e-01 -3.55439254e-01 4.67857998e-01
9.70572198e-03 -9.72313953e-01 2.33476723e-01
-9.67709922e-02 8.78487609e-01 4.67862055e-01
-6.15593741e-01 -9.53534633e-02 7.82273659e-01
-8.25092445e-01 3.16750701e-01 -4.67858363e-01
-4.67675793e-01 -5.73888447e-01 -6.72258430e-01
-6.35701828e-01 -2.82893323e-01 7.18230163e-01
2.93086420e-01 3.40768875e-02 9.55478481e-01
9.85537006e-01 -1.63898445e-01 -4.30593089e-02
