7.79901723e-01 6.25413027e-01 2.47357503e-02
3.56702090e-01 -9.14878157e-01 1.89107483e-01
-7.34630005e-01 5.45501221e-01 -4.03419184e-01
-2.60108915e-01 -8.37352343e-01 4.80816563e-01
2.43190188e-01 1.37011952e-01 -9.60253057e-01
9.90329413e-01 -6.39981743e-02 1.23093171e-01
-2.00405686e-01 -9.67624976e-01 -1.53425595e-01
-3.69082237e-01 -8.73424484e-01 3.17660322e-01
-6.86183808e-02 9.97585352e-01 1.07232711e-02
-6.18849425e-01 -9.07021580e-02 -7.80255243e-01
4.17628308e-01 4.59787711e-01 -7.83697386e-01
1.24608073e-01 -5.92466368e-01 7.95899930e-01
-7.84937439e-02 -9.34097979e-01 -3.48280893e-01
-5.39218702e-01 8.21570576e-01 1.85108193e-01
5.23170327e-01 -5.76404049e-02 -8.50276488e-01
8.97156188e-01 3.18878764e-01 3.05658652e-01
6.80244007e-02 6.09521742e-01 7.89845678e-01
5.68347484e-02 8.53810447e-01 5.17472422e-01
-5.27929990e-01 -2.86339354e-01 7.99562362e-01
-8.14623548e-01 -3.21214579e-01 4.82918038e-01
-6.76321267e-01 -6.59107143e-01 -3.28887831e-01
-8.58422929e-01 -4.83665749e-01 1.70814445e-01
7.41563017e-01 3.77741908e-01 -5.54432282e-01
1.10273178e-01 -9.26841934e-01 -3.58892371e-01
9.52603038e-01 -7.34668354e-02 -2.95211748e-01
5.51100817e-01 -8.15327856e-01 -1.77562147e-01
-1.47697882e-01 -3.06466229e-01 -9.40352842e-01
2.93153944e-01 6.14759318e-01 -7.32210010e-01
-3.41903804e-01 7.88613268e-01 5.11068562e-01
5.21162886e-02 1.05676472e-01 -9.93033756e-01
2.00405145e-01 9.67625500e-01 -1.53423008e-01
1.21834460e-01 2.82526198e-01 9.51491268e-01
-7.99201071e-01 -1.45400557e-01 5.83212246e-01
7.85127303e-01 -3.86516391e-01 4.83921854e-01
7.85650846e-01 -2.02208749e-01 5.84691857e-01
7.17278218e-01 -6.88515255e-01 -1.07045152e-01
2.60109501e-01 8.37351256e-01 4.80818142e-01
4.50494289e-01 -6.27852253e-01 -6.34709563e-01
1.52921405e-01 7.41610448e-01 -6.53168254e-01
4.49765317e-01 -8.20379944e-01 3.53111916e-01
1.81080626e-01 -8.30678603e-01 -5.26481422e-01
6.91793531e-01 2.37542293e-01 -6.81905521e-01
5.69261902e-01 7.75651921e-01 2.72589578e-01
5.51291889e-01 7.91614556e-01 -2.63483510e-01
-3.96413690e-02 -9.63910810e-02 9.94553999e-01
1.30194872e-01 9.91249762e-01 2.17534399e-02
8.63291029e-01 -3.37691813e-02 5.03575627e-01
9.67674577e-01 -2.51798091e-01 1.42702086e-02
-9.57315246e-01 -2.81199313e-01 -6.68912775e-02
-5.49099552e-01 2.77639108e-01 -7.88293055e-01
5.56498343e-01 6.20688612e-01 5.52318231e-01
4.64239119e-03 9.85282795e-01 -1.70868970e-01
-1.30195655e-01 -9.91249711e-01 2.17510606e-02
7.30210750e-01 -5.55545987e-01 3.97694670e-01
-9.66314338e-01 -1.29703533e-01 2.22291854e-01
-8.27314647e-01 5.61732639e-01 2.63027628e-03
2.48690620e-01 -7.04252557e-01 -6.64966982e-01
7.86646104e-01 -1.90700243e-01 -5.87214719e-01
8.85800110e-01 -2.16689968e-01 4.10370273e-01
-6.80227857e-02 -6.09523838e-01 7.89844198e-01
-9.01576927e-01 -1.41990431e-01 4.08653765e-01
-1.81081637e-01 8.30680045e-01 -5.26478800e-01
6.76320443e-01 6.59108425e-01 -3.28886958e-01
-3.55615369e-01 -7.19758257e-01 5.96226435e-01
7.88066759e-01 5.89993822e-01 -1.75664494e-01
8.03439233e-01 -5.54919081e-01 2.15755149e-01
-5.25030049e-01 -8.49813180e-01 -4.64864580e-02
-5.63456435e-01 2.03405313e-02 8.25895506e-01
-4.31676134e-01 6.54942929e-01 6.20246471e-01
-5.39715180e-01 -6.96991551e-01 -4.72133606e-01
-1.88272620e-01 4.22151815e-01 8.86759023e-01
-8.21142701e-01 -1.71353949e-01 -5.44391683e-01
8.77699327e-01 4.26487527e-01 -2.18522787e-01
3.57183615e-01 7.30726287e-01 -5.81772088e-01
-6.97821437e-01 -2.99925130e-01 6.50453978e-01
-2.12572447e-01 -8.40525914e-01 -4.98326171e-01
-9.90329266e-01 6.39975019e-02 1.23094704e-01
-8.85836521e-01 2.23928320e-01 -4.06386058e-01
-6.33863774e-01 5.17094393e-01 -5.75178156e-01
-3.24023108e-01 -2.78465970e-01 9.04138283e-01
-7.15032366e-01 6.89573909e-01 1.14963378e-01
-1.21832231e-01 -2.82528516e-01 9.51490865e-01
7.15032170e-01 -6.89574737e-01 1.14959625e-01
-2.59731825e-01 9.65659330e-01 6.43749776e-03
1.89339599e-01 -9.65326902e-01 -1.79706500e-01
-1.44720307e-01 8.37194325e-01 5.27410536e-01
-2.54095951e-01 -9.50775644e-01 1.77372437e-01
5.93130429e-01 4.27011671e-01 -6.82537249e-01
-3.67815974e-01 3.87502038e-01 -8.45312543e-01
9.93128294e-01 -8.62562532e-02 -7.90950316e-02
-1.94016597e-02 -4.59839779e-01 -8.87789757e-01
-4.35613961e-01 -5.74529265e-01 6.92933499e-01
8.85835996e-01 -2.23927053e-01 -4.06387901e-01
9.93667077e-01 1.08702704e-01 2.84512242e-02
9.66314645e-01 1.29702446e-01 2.22291157e-01
-9.46661909e-01 4.58088176e-02 3.18955938e-01
9.01577456e-01 1.41988855e-01 4.08653146e-01
6.50600461e-01 5.50203984e-01 -5.23444782e-01
3.92163108e-01 4.31392622e-01 8.12470785e-01
9.18290643e-01 1.04155069e-01 -3.81960583e-01
9.57315185e-01 2.81199448e-01 -6.68915869e-02
4.35615436e-01 5.74527932e-01 6.92933678e-01
-2.98247089e-01 8.83168221e-01 -3.62025477e-01
8.74686573e-02 6.13894221e-01 -7.84527154e-01
6.99470828e-01 4.79219350e-01 5.30178796e-01
8.65929220e-01 -3.93791450e-01 3.08374745e-01
3.37032344e-01 9.41490119e-01 -2.35673183e-03
-2.43191561e-01 -1.37009281e-01 -9.60253090e-01
8.21142020e-01 1.71355829e-01 -5.44392119e-01
2.34643373e-01 -7.09345854e-01 6.64658687e-01
-6.45841172e-01 -1.38024137e-01 7.50891984e-01
-1.38405697e-01 6.91403853e-02 -9.87959076e-01
8.05270026e-01 -5.53447633e-01 -2.12687164e-01
-6.67420353e-01 1.28840237e-01 -7.33450761e-01
1.44721089e-01 -8.37195847e-01 5.27407904e-01
5.27931608e-01 2.86337789e-01 7.99561854e-01
-7.88067197e-01 -5.89993144e-01 -1.75664805e-01
-6.39948278e-01 -7.63294321e-01 8.85889967e-02
-1.52691715e-01 -9.25546835e-01 3.46480033e-01
1.52691689e-01 9.25546025e-01 3.46482211e-01
-8.97155653e-01 -3.18880058e-01 3.05658872e-01
-7.57528468e-01 -2.25557740e-02 -6.52412168e-01
1.15790805e-01 -5.96685832e-01 -7.94076973e-01
-4.84250654e-01 -5.92110807e-01 -6.44131880e-01
5.63458080e-01 -2.03431041e-02 8.25894321e-01
7.57527716e-01 2.25579295e-02 -6.52412966e-01
4.39065531e-01 -8.98442535e-01 4.74041155e-03
4.49256469e-03 4.47029743e-01 8.94507981e-01
-5.44141553e-01 3.25759030e-01 7.73169636e-01
2.65274224e-01 9.08180327e-01 -3.23786922e-01
-4.79932203e-01 8.02657975e-01 -3.54125878e-01
-9.18291138e-01 -1.04153759e-01 -3.81959750e-01
-4.59491139e-01 -8.76727165e-01 1.42187970e-01
7.34629335e-01 -5.45500006e-01 -4.03422045e-01
-6.02798901e-01 7.97873675e-01 5.57547093e-03
-8.54408684e-01 -3.17168048e-01 -4.11570274e-01
-9.67674605e-01 2.51797857e-01 1.42724699e-02
6.39948443e-01 7.63294078e-01 8.85899068e-02
-3.69819879e-02 7.40423759e-01 6.71122356e-01
-4.11425003e-01 -8.17004063e-01 -4.04021893e-01
-4.60463441e-01 1.82624503e-01 8.68689821e-01
4.59490926e-01 8.76727002e-01 1.42189668e-01
4.51361650e-01 1.28210311e-01 8.83082712e-01
-7.62355524e-02 2.65032718e-01 9.61221163e-01
8.67677577e-01 -4.06199598e-02 -4.95464908e-01
3.75758651e-01 -9.08549924e-01 -1.82599038e-01
-2.71889864e-01 2.31085387e-01 9.34171163e-01
8.85609672e-01 4.63884431e-01 -2.25108180e-02
3.75534656e-01 -7.68001929e-01 -5.18793392e-01
-1.52922416e-01 -7.41608791e-01 -6.53169897e-01
-6.50601310e-01 -5.50202268e-01 -5.23445530e-01
6.97822473e-01 2.99923480e-01 6.50453628e-01
-1.60869251e-01 -7.44578293e-01 6.47861457e-01
5.44142781e-01 -3.25761538e-01 7.73167715e-01
1.47696479e-01 3.06468752e-01 -9.40352241e-01
-1.49478469e-02 -8.52313905e-01 -5.22816787e-01
6.67419472e-01 -1.28837810e-01 -7.33451988e-01
-8.67678177e-01 4.06215688e-02 -4.95463724e-01
-4.40261600e-01 -1.25602314e-01 -8.89040765e-01
-2.65275144e-01 -9.08179210e-01 -3.23789298e-01
7.82526793e-01 -3.77773647e-01 -4.94912843e-01
8.27314454e-01 -5.61732938e-01 2.62694833e-03
3.69082226e-01 8.73423959e-01 3.17661780e-01
-4.90610869e-02 7.38429483e-01 -6.72543442e-01
-1.77158870e-01 4.30398074e-01 -8.85083010e-01
-4.72243980e-01 -7.62894740e-01 4.41562438e-01
6.52878247e-01 -1.72405967e-01 7.37581471e-01
-7.94844473e-01 -4.90853257e-01 3.56770884e-01
3.14809086e-01 -5.55625401e-01 -7.69529332e-01
5.48162463e-01 -6.93743188e-01 4.67159995e-01
2.54329597e-01 -8.96720853e-01 3.62226849e-01
-2.48691765e-01 7.04254488e-01 -6.64964509e-01
-4.49081759e-03 -4.47032093e-01 8.94506815e-01
-7.85649897e-01 2.02206553e-01 5.84693891e-01
-4.05594803e-01 2.03006808e-01 -8.91224321e-01
9.35569795e-01 2.46085608e-01 -2.53280372e-01
-3.43866102e-01 -3.05304434e-01 -8.88000567e-01
-4.26880655e-02 2.76775836e-01 -9.59985699e-01
-5.48161749e-01 6.93741506e-01 4.67163332e-01
3.55616618e-01 7.19757005e-01 5.96227203e-01
4.31677273e-01 -6.54944892e-01 6.20243605e-01
7.94845320e-01 4.90852036e-01 3.56770679e-01
-6.45831098e-01 7.01902661e-01 3.00391328e-01
-8.85799554e-01 2.16688188e-01 4.10372415e-01
-5.21176736e-02 -1.05673899e-01 -9.93033957e-01
6.86176579e-02 -9.97585427e-01 1.07207942e-02
-5.68340696e-02 -8.53811839e-01 5.17470198e-01
-8.05270524e-01 5.53448068e-01 -2.12684149e-01
-6.76161962e-01 3.66779570e-01 6.38966325e-01
2.23208436e-01 4.72201513e-01 -8.52762240e-01
5.49407027e-02 -9.28901389e-01 3.66229233e-01
2.27479019e-01 -2.42092179e-01 -9.43209602e-01
9.44695465e-01 3.04951562e-01 1.20644373e-01
5.49098497e-01 -2.77636505e-01 -7.88294707e-01
4.79931425e-01 -8.02656871e-01 -3.54129431e-01
9.46662313e-01 -4.58102452e-02 3.18954534e-01
6.45831294e-01 -7.01904066e-01 3.00387620e-01
1.99897884e-01 4.49914587e-01 8.70412543e-01
2.71891761e-01 -2.31087785e-01 9.34170017e-01
-4.49764985e-01 8.20378658e-01 3.53115328e-01
-6.73681084e-01 3.39709790e-01 -6.56316108e-01
-9.48410641e-01 2.45979521e-01 -2.00028158e-01
6.45842439e-01 1.38022070e-01 7.50891275e-01
3.96438513e-02 9.63887400e-02 9.94554127e-01
-2.93155052e-01 -6.14757463e-01 -7.32211124e-01
7.40321209e-01 -1.63844790e-02 6.72053780e-01
1.38404312e-01 -6.91377931e-02 -9.87959452e-01
1.49469040e-02 8.52315116e-01 -5.22814841e-01
6.73680221e-01 -3.39707581e-01 -6.56318137e-01
6.70435958e-01 7.32809344e-01 -1.16215541e-01
-7.17278757e-01 6.88515230e-01 -1.07041705e-01
-9.35570106e-01 -2.46084809e-01 -2.53279998e-01
8.58423397e-01 4.83664975e-01 1.70814290e-01
-5.76697569e-01 -4.43534983e-01 6.86073512e-01
-3.92161473e-01 -4.31394191e-01 8.12470741e-01
-9.93667023e-01 -1.08702972e-01 2.84520673e-02
-7.41563767e-01 -3.77740107e-01 -5.54432506e-01
4.05593494e-01 -2.03004146e-01 -8.91225523e-01
-3.14810279e-01 5.55627677e-01 -7.69527202e-01
4.90599295e-02 -7.38427820e-01 -6.72545352e-01
-9.48028413e-01 2.32534302e-01 2.17186556e-01
-7.79901723e-01 -6.25413027e-01 2.47357213e-02
-7.30210272e-01 5.55544243e-01 3.97697986e-01
4.60465058e-01 -1.82627092e-01 8.68688419e-01
-5.23171479e-01 5.76429528e-02 -8.50275606e-01
-9.52603416e-01 7.34678455e-02 -2.95210278e-01
-3.57184634e-01 -7.30724776e-01 -5.81773359e-01
4.40260407e-01 1.25604862e-01 -8.89040996e-01
2.54095422e-01 9.50775406e-01 1.77374477e-01
7.99201848e-01 1.45398692e-01 5.83211646e-01
-3.72958216e-01 3.81559726e-01 8.45762751e-01
-3.56694541e-01 3.69089027e-02 9.33491860e-01
-7.36363001e-01 -6.40795673e-01 2.17141681e-01
-8.65928895e-01 3.93789954e-01 3.08377570e-01
-3.80261873e-02 -9.80342452e-01 1.93604624e-01
3.43864861e-01 3.05306866e-01 -8.88000211e-01
-9.82290061e-01 -8.06511903e-02 -1.69119969e-01
-2.34642113e-01 7.09343936e-01 6.64661180e-01
-7.82527480e-01 3.77775222e-01 -4.94910555e-01
-3.27026060e-01 3.47970748e-02 -9.44374291e-01
-4.64291280e-03 -9.85282392e-01 -1.70871278e-01
-5.01937987e-01 4.99426194e-01 7.06138777e-01
1.62836313e-01 -9.67858387e-01 1.91662572e-01
6.26915934e-01 -5.41780395e-01 5.59866595e-01
-6.52876947e-01 1.72403386e-01 7.37583225e-01
2.56195074e-01 6.02969554e-01 7.55507814e-01
3.24025287e-01 2.78463958e-01 9.04138122e-01
-6.99469733e-01 -4.79220611e-01 5.30179098e-01
9.48410337e-01 -2.45978928e-01 -2.00030326e-01
7.62376682e-02 -2.65035102e-01 9.61220337e-01
9.48028655e-01 -2.32535384e-01 2.17184342e-01
4.84249706e-01 5.92112584e-01 -6.44130960e-01
6.18848436e-01 9.07044792e-02 -7.80255757e-01
-8.85609677e-01 -4.63884419e-01 -2.25108173e-02
-1.10273923e-01 9.26842805e-01 -3.58889894e-01
-4.17629347e-01 -4.59785613e-01 -7.83698062e-01
4.11423719e-01 8.17005412e-01 -4.04020475e-01
-5.28550682e-01 -2.81262843e-01 -8.00952632e-01
7.79176234e-01 5.00458872e-01 -3.77392616e-01
5.28549635e-01 2.81265128e-01 -8.00952521e-01
-4.39066226e-01 8.98442176e-01 4.74418134e-03
2.98246279e-01 -8.83167133e-01 -3.62028795e-01
-2.54329302e-01 8.96719720e-01 3.62229861e-01
-8.63290331e-01 3.37672941e-02 5.03576949e-01
-6.58311574e-01 -6.41931465e-01 3.93128475e-01
-5.56497135e-01 -6.20689638e-01 5.52318294e-01
3.16929488e-01 -5.56185351e-01 7.68253743e-01
6.02798293e-01 -7.97874160e-01 5.57170299e-03
-2.38494873e-01 -1.14398447e-01 9.64382453e-01
-1.62836629e-01 9.67857788e-01 1.91665334e-01
5.39218496e-01 -8.21571556e-01 1.85104438e-01
1.94002997e-02 4.59842103e-01 -8.87788583e-01
-6.26915017e-01 5.41778400e-01 5.59869553e-01
-8.74698976e-02 -6.13892206e-01 -7.84528591e-01
8.14624299e-01 3.21213022e-01 4.82917808e-01
-6.57447211e-01 6.91801418e-01 -2.98619929e-01
4.26866728e-02 -2.76773355e-01 -9.59986476e-01
-3.16928040e-01 5.56183101e-01 7.68255970e-01
3.67814766e-01 -3.87499510e-01 -8.45314226e-01
-8.77699662e-01 -4.26486792e-01 -2.18522869e-01
2.59731118e-01 -9.65659539e-01 6.43446933e-03
2.38497332e-01 1.14396237e-01 9.64382108e-01
-1.99896111e-01 -4.49916679e-01 8.70411868e-01
3.27024692e-01 -3.47943389e-02 -9.44374865e-01
6.58312572e-01 6.41930479e-01 3.93128416e-01
6.33862958e-01 -5.17092463e-01 -5.75180789e-01
-1.24606500e-01 5.92464172e-01 7.95901812e-01
-9.05170914e-01 4.10601094e-01 1.09874456e-01
-2.27480401e-01 2.42094688e-01 -9.43208625e-01
-5.49405622e-02 9.28900380e-01 3.66231815e-01
1.88274221e-01 -4.22154222e-01 8.86757537e-01
-5.69261416e-01 -7.75652544e-01 2.72588814e-01
-2.23209677e-01 -4.72199293e-01 -8.52763144e-01
-7.40320172e-01 1.63822197e-02 6.72054977e-01
-4.51359502e-01 -1.28212413e-01 8.83083504e-01
-3.75759381e-01 9.08550355e-01 -1.82595397e-01
5.01939240e-01 -4.99428449e-01 7.06136292e-01
-8.03439119e-01 5.54917915e-01 2.15758578e-01
6.57446553e-01 -6.91800609e-01 -2.98623252e-01
3.41904606e-01 -7.88614863e-01 5.11065564e-01
-3.56702290e-01 9.14877377e-01 1.89110881e-01
-5.51293012e-01 -7.91613448e-01 -2.63484486e-01
3.56696757e-01 -3.69111903e-02 9.33490923e-01
-2.56193498e-01 -6.02971306e-01 7.55506949e-01
-3.75535594e-01 7.68003593e-01 -5.18790250e-01
3.69832887e-02 -7.40425618e-01 6.71120232e-01
4.72244720e-01 7.62893941e-01 4.41563030e-01
7.84929605e-02 9.34098817e-01 -3.48278823e-01
1.58070186e-01 -7.34136539e-02 9.84695173e-01
-9.93128409e-01 8.62564151e-02 -7.90934070e-02
5.67264374e-01 -6.71573122e-01 -4.76655547e-01
-9.05681636e-01 4.11543410e-01 -1.01846751e-01
9.05170960e-01 -4.10601764e-01 1.09871571e-01
-5.67265150e-01 6.71574690e-01 -4.76652415e-01
9.82289857e-01 8.06517309e-02 -1.69120897e-01
-6.70436562e-01 -7.32808691e-01 -1.16216170e-01
-7.85126649e-01 3.86514368e-01 4.83924531e-01
2.12571533e-01 8.40527277e-01 -4.98324264e-01
-1.15792134e-01 5.96687894e-01 -7.94075230e-01
-9.44695200e-01 -3.04952282e-01 1.20644620e-01
-3.37032746e-01 -9.41489969e-01 -2.35898965e-03
-5.51101528e-01 8.15328189e-01 -1.77558415e-01
5.39714164e-01 6.96993088e-01 -4.72132500e-01
9.05681404e-01 -4.11543235e-01 -1.01849520e-01
-7.86646815e-01 1.90702157e-01 -5.87213145e-01
5.76698964e-01 4.43533708e-01 6.86073164e-01
-8.64214579e-01 3.96464093e-01 -3.09756809e-01
-5.09597196e-01 4.64838199e-01 -7.24041368e-01
3.72959614e-01 -3.81562211e-01 8.45761013e-01
-5.93131307e-01 -4.27009679e-01 -6.82537733e-01
6.76162969e-01 -3.66781837e-01 6.38963958e-01
-7.79176903e-01 -5.00457512e-01 -3.77393037e-01
5.09596192e-01 -4.64835810e-01 -7.24043608e-01
-1.89340187e-01 9.65327313e-01 -1.79703679e-01
7.36363681e-01 6.40794882e-01 2.17141710e-01
5.25029763e-01 8.49813449e-01 -4.64847815e-02
8.54408135e-01 3.17169497e-01 -4.11570297e-01
8.64214068e-01 -3.96463246e-01 -3.09759316e-01
4.02564352e-01 8.95830835e-01 -1.88225916e-01
1.60870546e-01 7.44576643e-01 6.47863033e-01
1.77157538e-01 -4.30395749e-01 -8.85084407e-01
-4.02564971e-01 -8.95830125e-01 -1.88227967e-01
-1.58067782e-01 7.34113614e-02 9.84695730e-01
-6.91794405e-01 -2.37540189e-01 -6.81905367e-01
3.80257106e-02 9.80341986e-01 1.93607081e-01
-4.50495241e-01 6.27854338e-01 -6.34706825e-01
