5.95125237e-01 3.47109633e-01 7.24804102e-01
5.68145198e-01 6.63558751e-01 4.86724388e-01
-1.69657118e-01 -8.78252327e-01 -4.47089992e-01
-1.31696151e-01 8.80248641e-01 4.55871078e-01
2.83029957e-01 -5.96098590e-01 7.51372908e-01
-1.89196675e-02 -5.36080163e-01 -8.43954812e-01
-7.65202339e-01 5.65613288e-01 3.07485424e-01
2.96487407e-02 9.35863866e-01 3.51111931e-01
3.95018764e-01 3.13283702e-02 -9.18138238e-01
-5.66788706e-01 3.46854470e-01 7.47290565e-01
-8.94545108e-01 4.40338032e-01 -7.67566636e-02
9.49278390e-01 3.09665524e-01 -5.45637543e-02
-5.73546330e-01 -1.27683709e-01 -8.09160781e-01
8.25591150e-01 -3.21782898e-01 4.63524723e-01
-4.62691169e-01 8.47711129e-01 2.59427675e-01
-1.22526810e-01 7.71529768e-01 6.24282917e-01
-4.85342553e-01 5.58430017e-01 -6.72754007e-01
-3.21035495e-01 1.51318402e-01 9.34900920e-01
-8.73778875e-01 -4.85813831e-01 -2.22708112e-02
1.80039080e-01 9.65176576e-01 -1.89787850e-01
-4.68012079e-01 -8.51334550e-01 -2.37054007e-01
-8.91635012e-01 -4.22178598e-01 1.63563277e-01
7.77735910e-01 5.40312196e-01 -3.21230058e-01
5.38344821e-01 7.72756392e-01 3.36202425e-01
-5.81444379e-01 -5.27484662e-01 6.19421777e-01
-2.44719521e-01 -1.96924070e-01 -9.49385455e-01
-6.73901665e-01 -3.61258076e-01 6.44476609e-01
-4.41165197e-01 -2.17002873e-01 8.70795026e-01
6.36917222e-01 6.24547766e-01 -4.51968612e-01
3.51623843e-01 8.83341333e-01 3.09949073e-01
5.69330003e-01 5.72104258e-02 -8.20115491e-01
3.63050549e-02 5.04527934e-01 -8.62631205e-01
1.85353195e-01 9.55385876e-01 2.29960136e-01
-9.87146641e-01 1.34248654e-01 8.67135285e-02
-8.54593985e-01 2.63335049e-01 -4.47575330e-01
2.59840328e-01 1.96676605e-01 -9.45410171e-01
-2.47221025e-01 -9.67824653e-01 4.68807714e-02
-4.41444518e-01 -2.53908730e-01 -8.60614170e-01
-3.38162741e-01 1.20245602e-01 -9.33373630e-01
-8.02246814e-01 -6.10543398e-02 -5.93862222e-01
6.66255139e-01 7.42152419e-01 -7.28915873e-02
7.16949500e-01 1.98553996e-01 6.68251324e-01
-9.94476202e-01 -6.93175888e-02 7.88205361e-02
3.35105047e-01 8.09534386e-01 -4.82035050e-01
-6.84275940e-01 1.17690781e-02 -7.29128014e-01
-4.94336735e-01 1.63801719e-01 8.53698410e-01
4.50706427e-03 -6.91602800e-04 9.99989984e-01
-4.73464854e-01 7.64031167e-01 4.38277977e-01
-1.46256661e-01 9.54841400e-01 2.58624625e-01
-5.57141605e-01 -1.86430246e-02 8.30208739e-01
5.49620716e-01 -7.74000702e-01 3.14388852e-01
7.32009432e-01 -4.99185155e-01 4.63655742e-01
9.66493545e-01 1.11682282e-02 -2.56446644e-01
-1.35236695e-01 -6.77945840e-01 -7.22565086e-01
-3.17062358e-01 9.35446087e-01 1.56243052e-01
-2.90996660e-01 -3.69224646e-01 -8.82606216e-01
2.17310596e-01 -8.56176251e-01 4.68763269e-01
6.64775777e-02 -6.75639355e-01 -7.34228797e-01
3.41426058e-01 -9.69551804e-02 9.34894941e-01
7.23032285e-01 1.35680847e-01 -6.77358200e-01
-5.73158908e-01 3.88041299e-01 -7.21742565e-01
-6.26363757e-01 -6.06211650e-01 -4.90077610e-01
-5.75716912e-01 -3.41944707e-01 -7.42713740e-01
-5.52973975e-02 3.39583840e-01 -9.38948434e-01
-2.35322124e-02 -5.22993598e-01 8.52012229e-01
2.91513970e-01 4.50732863e-01 8.43717841e-01
5.25564388e-01 -1.26116563e-01 -8.41353599e-01
-8.74526168e-01 -3.46636582e-01 3.39187059e-01
6.79912037e-03 -5.30300140e-03 -9.99962443e-01
6.66857636e-01 -7.30066830e-01 1.49343526e-01
-7.64448385e-01 -6.38478224e-01 -8.92456596e-02
-8.30017661e-02 6.23028988e-01 -7.77781933e-01
8.07574103e-01 -5.73037350e-01 1.39471477e-01
-8.05653366e-01 5.39749282e-01 -2.44117333e-01
-1.34336089e-01 -8.03590680e-01 5.79824728e-01
-4.06032270e-01 -9.04760193e-01 1.28637050e-01
-8.58382296e-01 4.99760642e-01 1.15841941e-01
-9.57403296e-01 -2.86672401e-01 3.46184745e-02
-9.14154214e-01 -1.31419472e-01 3.83473262e-01
9.96647900e-02 -6.50110400e-01 7.53275670e-01
-7.46486265e-01 -4.53451600e-01 4.86971056e-01
-7.21843175e-01 3.24909689e-01 6.11045618e-01
-7.95661041e-01 1.43314717e-01 5.88544920e-01
6.92007562e-01 -6.09998202e-01 -3.86040704e-01
-5.18446045e-01 -7.57700659e-01 3.96363841e-01
5.85770487e-01 -6.60778509e-01 4.69302798e-01
-1.31243939e-01 1.42759316e-01 9.81017605e-01
3.33438335e-01 3.91233587e-01 -8.57761141e-01
6.42478124e-01 7.55579508e-01 1.27753393e-01
6.09917864e-02 -7.87239658e-01 6.13624100e-01
9.91058337e-01 1.03261496e-01 -8.44979071e-02
4.13946581e-01 -9.09741812e-01 -3.19106826e-02
5.34160064e-02 -3.40036373e-01 9.38894482e-01
-6.27557419e-01 7.10985438e-01 3.17287831e-01
-7.86080319e-01 4.44762092e-01 -4.29260078e-01
-4.08275406e-01 -5.50073960e-01 7.28512747e-01
-4.76646398e-01 8.78088977e-01 4.20449904e-02
7.28747132e-01 -3.55162601e-01 -5.85479763e-01
-3.62514757e-01 8.97684367e-01 -2.50490254e-01
6.41265189e-01 -2.46780548e-01 -7.26551860e-01
-9.67641908e-01 8.30829370e-03 2.52191824e-01
6.68747951e-02 1.79733953e-01 -9.81439049e-01
-4.40434611e-01 5.13316201e-01 7.36562515e-01
-4.54393126e-01 -7.02683877e-01 -5.47505587e-01
-6.01423641e-01 -2.01345943e-01 7.73143168e-01
-3.74865111e-01 -8.68718433e-01 3.23736394e-01
3.52770018e-01 8.86877374e-01 -2.98330419e-01
5.98162813e-01 -8.01126417e-01 -1.99454326e-02
-3.78856347e-01 8.20246080e-01 -4.28560012e-01
4.67398754e-01 6.79051034e-01 -5.66062844e-01
8.09407673e-01 2.45604118e-01 -5.33420064e-01
-3.43874012e-01 -6.29482024e-01 -6.96780425e-01
-3.29798921e-01 -7.99264814e-01 5.02403555e-01
8.31323130e-01 3.99416630e-01 3.86481508e-01
3.58226895e-01 -4.06457121e-01 8.40515782e-01
2.25463877e-01 -8.75274166e-01 -4.27856479e-01
6.38656698e-01 -5.27456171e-01 -5.60274182e-01
7.15539405e-01 5.40533947e-01 4.42522524e-01
-5.39641882e-01 7.73933226e-01 -3.31381373e-01
1.23208909e-01 -9.86562909e-01 1.07301851e-01
-6.85631633e-01 6.13170778e-01 -3.92339860e-01
6.81337149e-01 8.22398050e-03 7.31923708e-01
-3.37553662e-01 -3.95366750e-01 8.54250339e-01
-5.26349618e-01 6.63225747e-02 -8.47677383e-01
-7.83190277e-01 1.43728266e-01 -6.04942133e-01
8.68956169e-01 -4.91715912e-01 -5.59504625e-02
9.75442930e-01 1.98448020e-01 9.55459682e-02
4.75595893e-02 8.39588567e-01 5.41136875e-01
4.02760647e-01 1.06809768e-01 9.09052255e-01
-6.80855798e-01 6.99444331e-01 -2.17285081e-01
-9.42329847e-01 -1.98078989e-01 -2.69776702e-01
-3.88159011e-01 -3.30338782e-02 9.21000667e-01
-5.17393899e-01 8.42643010e-01 -1.49184522e-01
3.41385380e-01 -7.50596021e-01 -5.65739705e-01
-1.90200912e-01 9.19132722e-01 -3.44989906e-01
-3.65930621e-01 -9.25645685e-01 -9.63087241e-02
5.13013186e-01 8.58221249e-01 -1.65262619e-02
-2.01983140e-01 -3.71299269e-02 9.78685358e-01
5.60795158e-01 -4.27058353e-01 -7.09316132e-01
-7.91932748e-01 -5.98584939e-01 1.20579059e-01
-6.54083422e-01 7.55472217e-01 -3.79011931e-02
-7.91687154e-01 6.08190080e-01 -5.77605961e-02
1.72845371e-01 -9.38814108e-01 2.97914661e-01
3.92803278e-01 7.84876805e-01 4.79242955e-01
-7.07786182e-01 -3.00203590e-03 7.06420946e-01
2.22494884e-02 -8.91466451e-01 4.52540920e-01
-6.40376013e-01 2.05702638e-01 -7.40003109e-01
9.56976458e-01 -1.08851450e-01 2.68974467e-01
1.50103323e-01 -7.88887910e-01 -5.95923413e-01
6.64039797e-01 6.98240783e-01 -2.67413794e-01
4.53905606e-01 -5.92494775e-01 -6.65521766e-01
8.33907199e-01 2.24236541e-01 5.04298200e-01
4.49403413e-01 4.93302858e-01 7.44774464e-01
-5.40202094e-01 6.74736470e-01 -5.02903493e-01
-9.39420716e-01 2.14409475e-01 2.67428126e-01
-7.26714059e-02 4.83885186e-01 8.72109202e-01
-3.94746609e-01 -6.72439713e-02 -9.16325743e-01
-4.41308074e-02 3.11254051e-01 9.49301839e-01
8.26962326e-01 2.82765838e-02 -5.61545144e-01
-1.60246902e-01 9.85898982e-01 4.82054496e-02
8.59413511e-01 -2.74167774e-01 -4.31555188e-01
2.49494779e-01 -2.80932519e-01 9.26730816e-01
9.13039734e-01 -2.90657581e-01 2.86140833e-01
-2.72041000e-01 -9.21303147e-01 -2.77839069e-01
-1.81321363e-01 4.70680223e-01 -8.63470838e-01
1.00917497e-01 5.64537558e-01 8.19215062e-01
-6.78367095e-01 -6.84447370e-01 2.67115523e-01
2.68230785e-01 6.20230610e-01 7.37133901e-01
-6.24206180e-02 -9.94898273e-01 7.92568678e-02
9.97102769e-01 -1.79700345e-02 7.39106251e-02
1.47522389e-01 -1.77097045e-01 -9.73074026e-01
-5.55037914e-01 -7.45085900e-01 -3.69838108e-01
-6.04601447e-01 7.83356043e-01 1.44258099e-01
9.67358546e-01 7.81781770e-02 2.41050504e-01
-5.50347041e-01 -8.09933547e-01 2.02796844e-01
8.86340591e-01 -3.89286580e-01 -2.50710843e-01
7.92281414e-01 -1.68247759e-01 -5.86499909e-01
3.21377994e-01 -9.17870816e-01 -2.32872215e-01
-8.89577005e-01 6.94373854e-02 -4.51476698e-01
8.32631759e-01 -4.65432304e-01 3.00161979e-01
2.04660579e-01 9.06525430e-03 -9.78790596e-01
-8.48975612e-01 2.80759027e-01 4.47677733e-01
-6.36166671e-02 -9.54898294e-01 -2.90038663e-01
9.15914816e-01 2.44948102e-01 3.17962590e-01
5.04704755e-01 4.09029518e-01 -7.60241392e-01
-1.44016360e-01 -3.80144999e-01 9.13646543e-01
2.52597339e-01 -7.41969880e-01 6.21028178e-01
7.07960702e-01 -3.42506984e-01 6.17641431e-01
2.19817186e-01 4.34406131e-02 9.74573725e-01
1.54056116e-01 8.14108398e-01 -5.59904769e-01
7.43458610e-01 4.53897956e-01 -4.91167010e-01
4.04270283e-01 -8.26762495e-01 -3.91189513e-01
-6.47360875e-01 5.09683695e-01 -5.66697481e-01
-7.56284327e-01 4.57010727e-01 4.68162020e-01
3.01071357e-03 9.97368717e-01 -7.24296120e-02
3.35127627e-01 9.37328475e-01 9.54163924e-02
1.76579747e-01 -5.17822274e-01 -8.37065838e-01
9.89144087e-01 -1.12027355e-01 -9.50968036e-02
-2.58579546e-01 -7.68899895e-01 -5.84747468e-01
8.77089387e-01 4.80166469e-01 1.24005094e-02
-8.22766915e-01 -2.68146670e-01 5.01151504e-01
-7.41299671e-01 -1.80232956e-01 6.46522835e-01
-1.04782757e-01 -3.72067442e-01 -9.22272146e-01
-3.03350117e-01 5.82105870e-01 -7.54407544e-01
7.08446975e-01 -6.32506352e-01 3.13111530e-01
5.94526055e-01 5.18264978e-01 6.14768370e-01
7.55381886e-01 -6.54848881e-01 -2.38980468e-02
-8.38759343e-01 -4.75074127e-02 5.42426592e-01
-6.28423963e-01 -7.60927709e-01 -1.61470905e-01
-2.89462739e-01 6.59057430e-01 6.94157740e-01
-4.84093951e-02 -1.90495719e-01 -9.80493384e-01
-2.01828783e-02 -9.61759039e-01 2.73153574e-01
9.09350707e-01 -4.00322636e-01 1.13238521e-01
5.69906157e-01 -7.48033476e-01 -3.40077551e-01
5.00400884e-01 -8.44759666e-01 -1.89684217e-01
-7.45530159e-01 6.53188243e-01 1.32400959e-01
-7.29255281e-01 3.32913506e-01 -5.97791798e-01
-4.68418633e-01 2.51790643e-01 -8.46867695e-01
1.74144769e-01 9.07591275e-01 -3.82035183e-01
5.59604823e-01 -3.57374084e-01 7.47747754e-01
5.69469707e-01 1.58850337e-01 8.06517896e-01
5.84538313e-01 5.26905253e-01 -6.16996632e-01
2.83725822e-01 7.00264630e-01 -6.55078738e-01
-3.04160074e-01 7.84482203e-01 5.40439167e-01
-2.15182521e-01 -9.47829572e-01 2.35194189e-01
2.39003968e-01 7.63338340e-01 6.00159708e-01
5.08160079e-01 7.67766966e-01 -3.90264448e-01
3.51706420e-01 9.30217232e-01 -1.04870507e-01
-9.25579929e-01 -3.48188094e-01 -1.48550655e-01
-4.66989083e-01 -6.75449353e-01 5.70692845e-01
-1.34213259e-01 1.63527339e-01 -9.77366281e-01
-6.81823308e-01 -4.20285995e-01 -5.98729234e-01
-5.28847355e-01 -8.48537857e-01 -1.74526855e-02
-8.87820597e-01 -1.33129745e-01 -4.40512393e-01
1.50160637e-01 3.60182170e-01 -9.20716922e-01
-1.93093680e-01 -1.80015305e-02 -9.81014842e-01
4.61838731e-01 -3.06575216e-01 -8.32295582e-01
-3.31715943e-01 9.41571217e-01 -5.83766172e-02
-2.19851911e-01 -5.47809580e-01 8.07199337e-01
2.27754111e-01 -9.71436845e-01 -6.66245662e-02
9.04747233e-01 1.31598960e-01 -4.05109118e-01
9.45105850e-01 2.25301386e-01 -2.36671764e-01
-3.03747240e-01 8.80551407e-01 3.63822517e-01
2.04364156e-01 8.77485011e-01 4.33883824e-01
6.81811455e-01 3.52893540e-01 -6.40779479e-01
8.39605216e-02 -3.62077579e-01 -9.28358705e-01
-1.74704522e-01 -8.93669439e-01 4.13320792e-01
3.08712426e-01 -9.42105541e-01 1.30897671e-01
-7.02259590e-01 -2.06640780e-01 -6.81271560e-01
-8.69991645e-01 3.99442540e-01 2.89068504e-01
8.82472538e-01 4.28675058e-01 -1.93595414e-01
6.78470575e-04 9.61871621e-01 -2.73499285e-01
-9.85854269e-01 -1.37234643e-01 -9.62207366e-02
-3.93515632e-01 4.25412052e-01 -8.14965877e-01
-1.72089862e-01 9.71969020e-01 -1.60189873e-01
4.07262123e-01 -7.85997120e-01 4.65130779e-01
1.26090469e-01 3.89747898e-01 9.12248993e-01
6.33883060e-01 -1.79956309e-01 7.52202352e-01
-2.16202148e-01 -5.33596102e-01 -8.17637790e-01
-6.43544649e-01 -6.17375220e-01 4.52436776e-01
4.56481150e-01 -5.17717257e-01 7.23598232e-01
6.06358425e-01 -5.16470235e-01 6.04639067e-01
6.76080821e-01 -7.13165998e-01 -1.85226584e-01
4.25121122e-01 6.53371031e-01 6.26401079e-01
-3.70586142e-01 -8.27967939e-01 -4.20874370e-01
1.38319639e-02 9.89750724e-01 1.42133085e-01
4.34348616e-01 2.22785754e-01 -8.72758174e-01
-9.60437672e-01 -6.67779500e-03 -2.78415318e-01
4.87309594e-01 8.55697543e-01 1.74099372e-01
-9.98842460e-02 6.38362627e-01 7.63227761e-01
1.33106447e-01 -1.42725890e-01 9.80771508e-01
3.50316414e-02 -8.92755677e-01 -4.49177193e-01
-8.66565514e-01 -3.48629468e-01 -3.57102185e-01
4.96726296e-01 -8.55646213e-01 1.45371409e-01
1.69956298e-01 -4.76160247e-01 8.62778700e-01
-9.93290836e-01 6.35017582e-02 -9.66497101e-02
4.37244187e-01 -6.64983103e-01 6.05487888e-01
8.18871489e-01 5.23782526e-01 2.34735867e-01
-6.74517402e-02 -1.92044688e-01 9.79065864e-01
2.73426675e-01 -3.37641325e-01 -9.00686152e-01
9.03270898e-01 -8.05104021e-02 -4.21448796e-01
7.88808081e-01 -4.51241334e-01 -4.17327960e-01
1.04455658e-01 6.74329812e-01 -7.31004376e-01
-2.68361364e-01 3.02311517e-01 -9.14652503e-01
-7.89341516e-01 -5.28771150e-01 3.11996586e-01
-6.27994410e-01 6.14449392e-01 4.77572308e-01
4.00829972e-01 5.62868626e-01 -7.22850782e-01
2.23852168e-01 5.43331594e-01 -8.09122992e-01
-7.99087155e-01 -2.82782489e-01 -5.30559946e-01
-9.40310216e-01 3.26000141e-01 9.76776872e-02
-6.71143482e-01 -7.39180367e-01 5.63870089e-02
-2.30069302e-01 3.30813627e-01 9.15221886e-01
9.43948050e-01 -1.99880144e-01 -2.62696582e-01
7.73683842e-01 -1.58223224e-01 6.13497297e-01
3.41589984e-01 -1.54908959e-01 -9.26994454e-01
3.70761214e-02 -9.94666807e-01 -9.62480482e-02
8.98939239e-02 1.80049458e-01 9.79541677e-01
-9.62031428e-01 2.57153868e-01 -9.14748206e-02
-7.61423929e-01 -4.86664214e-01 -4.28242661e-01
9.47535576e-01 -3.09752432e-01 -7.89268166e-02
-2.63197809e-01 5.06999428e-01 8.20779503e-01
9.13710392e-01 3.70088428e-01 1.67831563e-01
3.65402618e-01 -8.79150029e-01 3.05902999e-01
-4.65833962e-01 6.52098068e-01 5.98136419e-01
7.29404653e-01 3.79130155e-01 5.69411203e-01
-4.22058485e-01 -4.62462466e-01 -7.79740284e-01
-1.31109531e-02 8.89500367e-01 -4.56745482e-01
-5.11455016e-02 -7.99001011e-01 -5.99150621e-01
6.94809921e-01 -5.82456705e-02 -7.16830383e-01
-6.07977503e-01 4.93203209e-01 6.22185224e-01
5.22830477e-01 -3.94251409e-02 8.51524745e-01
8.61787369e-01 3.44872866e-01 -3.72000562e-01
1.32951286e-01 -9.54807410e-01 -2.65832574e-01
-3.77827137e-01 7.11033115e-01 -5.93024399e-01
-8.31832266e-01 -5.05907596e-01 -2.28282741e-01
-8.91220520e-01 3.66891524e-01 -2.66676962e-01
-2.32752909e-02 7.79696219e-01 -6.25724564e-01
7.73448915e-01 6.29355249e-01 7.54199686e-02
6.92979896e-01 6.59653877e-01 2.90921358e-01
4.56051995e-01 -2.31905928e-01 8.59207068e-01
5.20355685e-01 8.28795614e-01 -2.05735311e-01
-9.42957881e-01 1.83127087e-01 -2.78019807e-01
9.72239820e-01 -2.14214738e-01 9.41357107e-02
2.70415346e-01 2.51615908e-01 9.29282222e-01
-9.53740317e-01 -2.12329480e-01 2.12829213e-01
9.05221325e-01 5.44434940e-02 4.21438209e-01
2.63544929e-01 -6.47767799e-01 -7.14801090e-01
-6.52219406e-01 1.74331568e-01 7.37712078e-01
-9.03602307e-01 8.90057231e-02 4.19024485e-01
-2.01500153e-01 8.33976476e-01 -5.13692736e-01
3.68629832e-01 -4.80199853e-01 -7.95939452e-01
-2.82952871e-01 -6.90084343e-01 6.66124785e-01
1.72782958e-01 9.84869682e-01 1.33127201e-02
5.21899510e-01 -6.81651864e-01 -5.12807318e-01
-5.33713738e-01 -5.42324427e-01 -6.48871216e-01
8.81753574e-01 -1.37089177e-01 4.51350442e-01
-7.08387066e-01 -6.40106636e-01 -2.97408206e-01
-2.62285751e-01 -2.20687192e-01 9.39416990e-01
4.39261369e-01 3.07812821e-01 8.43979280e-01
-2.01694380e-01 7.18614450e-01 -6.65516258e-01
5.93030101e-01 2.40531185e-01 -7.68413361e-01
7.31055980e-02 7.15007389e-01 6.95284232e-01
8.09371802e-01 3.28167921e-02 5.86379080e-01
-4.04082138e-01 3.43141071e-01 8.47922454e-01
-1.57262403e-01 -9.79807034e-01 -1.23479353e-01
7.96963268e-01 -5.60999714e-01 -2.23894222e-01
7.90296541e-01 5.98971413e-01 -1.29088732e-01
-5.15125415e-01 -3.86323041e-01 7.65115222e-01
-9.09035048e-02 -6.79353472e-01 7.28159549e-01
