1.81786650e-02 -7.17568345e-01 6.96251597e-01
-4.68715544e-01 5.57711936e-01 -6.85027059e-01
3.68621566e-01 -8.00280762e-01 4.72937181e-01
-7.05698211e-01 2.45034157e-01 6.64792694e-01
9.86197346e-01 2.51758076e-03 -1.65554226e-01
-4.49292809e-01 -1.83947183e-01 8.74242964e-01
-2.61340867e-01 7.79941833e-02 9.62091134e-01
6.75215930e-01 3.03184823e-01 -6.72429454e-01
4.63529070e-01 5.49622638e-01 6.95022902e-01
9.53105983e-01 3.02620110e-01 -3.17023918e-03
-3.46743695e-01 -9.31016319e-01 1.13919276e-01
7.84911507e-01 -3.64531720e-01 5.01030268e-01
2.33292492e-02 -5.59153511e-01 8.28736618e-01
5.26093113e-01 -7.86746230e-01 3.22888384e-01
-3.72806659e-01 8.37334708e-01 -3.99856425e-01
8.95955516e-01 -4.02619054e-01 1.87515076e-01
-8.78179939e-01 -3.06496413e-01 -3.67232044e-01
6.60915279e-01 -7.24102293e-01 -1.97146037e-01
7.45191979e-01 1.31132309e-01 6.53830442e-01
-2.42130042e-02 8.52264936e-01 -5.22548943e-01
4.27941007e-01 -7.20477604e-01 -5.45690088e-01
3.49359524e-01 7.90501766e-01 5.03046380e-01
-3.49358931e-01 -7.90502075e-01 5.03046308e-01
-4.27941030e-01 7.20478395e-01 -5.45689023e-01
-1.83553654e-01 -8.78471354e-01 4.41131296e-01
-6.81581944e-02 1.57430001e-01 9.85176016e-01
3.62277392e-01 8.74574245e-01 3.22297192e-01
-8.94815860e-01 -4.15219935e-01 1.64003769e-01
-4.96388921e-01 -6.74682764e-01 -5.46260342e-01
-8.51062273e-01 -4.15019560e-02 -5.23421228e-01
-6.56640883e-01 -5.94929075e-01 -4.63553047e-01
-3.68621124e-01 8.00280903e-01 4.72937283e-01
-4.63528949e-01 -5.49622791e-01 6.95022862e-01
6.49859790e-01 -4.20978027e-01 6.32819672e-01
-3.67612030e-01 6.85137617e-01 6.28847210e-01
-3.79684507e-01 -8.16001656e-01 -4.35867293e-01
2.20981078e-02 -4.98062143e-01 -8.66858946e-01
7.05698205e-01 -2.45034340e-01 6.64792635e-01
-1.81786650e-02 7.17568345e-01 6.96251596e-01
-3.05497496e-01 9.20404247e-01 -2.43981397e-01
9.60962193e-01 -1.97901999e-01 1.93356573e-01
4.38044230e-01 3.71705013e-01 8.18507119e-01
2.98670512e-01 -8.72361357e-02 -9.50360095e-01
7.27484660e-01 3.23539309e-01 6.05053157e-01
-2.26940543e-01 9.70525603e-01 -8.11043485e-02
6.81582320e-02 -1.57430055e-01 9.85176005e-01
4.85055405e-01 -3.59733923e-01 -7.97064316e-01
-8.25868081e-01 3.28962645e-01 -4.57957181e-01
5.48393046e-01 7.52234364e-01 -3.65250547e-01
1.76057761e-01 9.83769959e-01 3.46465625e-02
-6.06355512e-01 -2.17608088e-01 7.64840439e-01
-1.65892817e-01 9.05393028e-01 -3.90822762e-01
6.66098248e-01 6.24020489e-01 4.08548878e-01
-4.85056548e-01 3.59734465e-01 -7.97063375e-01
3.67612056e-01 -6.85137667e-01 6.28847143e-01
-3.48985234e-01 -4.37027696e-01 -8.28984206e-01
2.61635603e-01 1.06325882e-01 -9.59291474e-01
-6.52902788e-01 7.41275216e-01 1.55657451e-01
7.44353666e-01 4.11690817e-01 -5.25782727e-01
7.47024689e-01 -8.40106526e-02 -6.59465923e-01
-3.36025662e-01 4.87227234e-01 -8.06036678e-01
-9.29806910e-01 -1.16204229e-01 3.49222319e-01
8.85614859e-01 3.24969099e-01 3.31785957e-01
7.27056012e-01 1.11396996e-01 -6.77480048e-01
8.25867969e-01 -3.28961638e-01 -4.57958109e-01
-8.14943224e-01 -2.28272621e-01 -5.32689708e-01
2.17239560e-02 3.30026142e-01 -9.43721014e-01
-2.98672162e-01 8.72361164e-02 -9.50359577e-01
9.15118876e-01 -2.63293692e-01 -3.05341454e-01
-7.40908857e-01 6.71576914e-01 -6.20498833e-03
5.86614364e-01 -6.09055623e-01 -5.33792104e-01
4.43652001e-01 -5.91563894e-03 8.96180393e-01
-2.59016529e-01 -9.15711195e-01 -3.07218114e-01
8.19132103e-01 5.43532428e-01 -1.83288883e-01
-9.38479938e-01 7.11279189e-02 -3.37928541e-01
-5.22783310e-01 5.57590474e-01 6.44818945e-01
-9.28162880e-01 8.81953128e-02 3.61574078e-01
-8.89705029e-01 2.88964266e-01 3.53447536e-01
5.90130842e-01 -8.06575944e-01 -3.43625449e-02
5.53942840e-01 -7.40224176e-01 -3.81070743e-01
9.29807001e-01 1.16204172e-01 3.49222098e-01
3.35956692e-01 -2.82049594e-01 -8.98654403e-01
7.95862345e-01 5.33056574e-01 2.87148502e-01
3.21622059e-01 6.75077796e-01 6.63950487e-01
-9.51996817e-01 3.05039945e-01 2.55485656e-02
-2.98876419e-01 -5.12516075e-01 8.04985346e-01
-1.98509679e-01 6.34481352e-01 7.47013037e-01
8.55059634e-01 2.22950964e-02 5.18050919e-01
1.66089436e-01 -5.93699926e-01 -7.87358545e-01
2.19277686e-01 -2.71200567e-01 9.37213424e-01
6.32116888e-01 7.73153223e-01 5.15985832e-02
8.14942288e-01 2.28273037e-01 -5.32690963e-01
6.06892307e-01 2.83015736e-02 7.94280795e-01
-4.45001856e-01 -5.02702302e-02 -8.94116807e-01
-9.25625943e-01 -1.19737029e-01 -3.58997352e-01
2.42130057e-02 -8.52264550e-01 -5.22549575e-01
3.72807041e-01 -8.37334086e-01 -3.99857376e-01
-6.77819063e-01 5.48949395e-01 4.89097777e-01
1.85183712e-01 -8.76629397e-01 4.44104248e-01
6.11776502e-01 -4.27273523e-01 -6.65707006e-01
7.96391775e-01 4.85265503e-01 -3.60939017e-01
-8.28003627e-01 4.62755564e-01 -3.16649316e-01
9.94244568e-01 1.06832228e-01 8.03918378e-03
4.45000346e-01 5.02701657e-02 -8.94117563e-01
-3.00749879e-01 6.68560909e-01 -6.80128492e-01
5.73763954e-01 1.80773026e-01 -7.98820882e-01
9.95188097e-01 -9.49496272e-02 2.41921109e-02
9.51996802e-01 -3.05040028e-01 2.55482306e-02
-1.99307347e-01 -9.47228405e-01 2.51068358e-01
-5.31836025e-01 3.58834932e-01 7.67065266e-01
3.00749330e-01 -6.68560298e-01 -6.80129337e-01
3.46745191e-01 9.31015737e-01 1.13919470e-01
9.49110550e-02 -7.38662126e-01 -6.67359815e-01
1.65892917e-01 -9.05392632e-01 -3.90823640e-01
1.98509754e-01 -6.34481263e-01 7.47013094e-01
9.64230570e-02 4.01594394e-02 9.94530721e-01
-1.67374528e-01 -4.77407449e-01 -8.62592928e-01
-5.07073784e-01 -8.41624826e-01 1.85860483e-01
-4.38003262e-01 -8.66981948e-01 -2.37686929e-01
-1.30658029e-01 -4.48222728e-01 8.84322473e-01
6.06355663e-01 2.17607802e-01 7.64840402e-01
-5.96330202e-01 -4.99954041e-01 -6.28040821e-01
1.66480401e-01 -9.48022081e-01 2.71180443e-01
-6.75217232e-01 -3.03184696e-01 -6.72428203e-01
-7.90594962e-01 5.87189997e-01 1.73688749e-01
-9.86197427e-01 -2.51814520e-03 -1.65553723e-01
-1.76056083e-01 -9.83770274e-01 3.46461865e-02
-1.66479470e-01 9.48022321e-01 2.71180167e-01
-7.81478197e-01 -6.13536999e-01 1.13421134e-01
2.78274919e-01 1.19270801e-01 9.53068215e-01
7.77818737e-01 4.36206700e-01 4.52462627e-01
9.08230242e-01 3.74095256e-01 -1.87537402e-01
-4.43651890e-01 5.91566881e-03 8.96180447e-01
5.21647106e-01 7.66866610e-01 3.73899022e-01
6.16523865e-01 -2.18558180e-01 -7.56392408e-01
-5.90129981e-01 8.06576616e-01 -3.43615036e-02
4.96388353e-01 6.74682573e-01 -5.46261093e-01
8.78179519e-01 3.06496243e-01 -3.67233191e-01
-1.49182034e-01 -6.30389698e-01 7.61810167e-01
5.03292837e-01 6.71785400e-01 5.43508546e-01
-8.55059572e-01 -2.22951135e-02 5.18051019e-01
-6.60914953e-01 7.24102943e-01 -1.97144729e-01
-7.84911509e-01 3.64531689e-01 5.01030284e-01
1.49182018e-01 6.30389690e-01 7.61810176e-01
-1.66090549e-01 5.93700306e-01 -7.87358022e-01
-5.73765412e-01 -1.80772973e-01 -7.98819846e-01
-7.38204185e-01 -6.71081654e-01 -6.85849028e-02
1.91388980e-01 -7.72798998e-01 6.05105698e-01
-7.38760770e-01 5.95677511e-02 6.71330952e-01
-4.14067321e-02 3.65039385e-01 9.30071595e-01
-9.08230063e-01 -3.74096202e-01 -1.87536377e-01
8.89705045e-01 -2.88964300e-01 3.53447472e-01
1.85050528e-01 -4.01535112e-01 -8.96952879e-01
-2.17258121e-02 -3.30026161e-01 -9.43720965e-01
6.10600620e-01 -1.55117374e-02 -7.91785983e-01
-6.10601857e-01 1.55119223e-02 -7.91785024e-01
-3.12755403e-02 -9.84622957e-01 1.71871291e-01
-9.53105767e-01 -3.02620795e-01 -3.16945289e-03
-4.38044260e-01 -3.71705084e-01 8.18507071e-01
-5.53942646e-01 7.40224910e-01 -3.81069592e-01
-8.42455375e-01 -2.21472155e-01 4.91141310e-01
-6.11777167e-01 4.27274311e-01 -6.65705887e-01
1.83554356e-01 8.78471102e-01 4.41131504e-01
5.00042001e-02 6.42120253e-01 -7.64970570e-01
7.04935860e-01 -6.13885755e-01 -3.55259290e-01
1.87113120e-01 8.55560731e-01 -4.82704638e-01
3.15841784e-01 7.31825550e-01 -6.03882766e-01
-9.81660633e-01 -1.01464913e-02 1.90367392e-01
-4.79323951e-01 -8.77275577e-01 -2.52205066e-02
-1.40072816e-01 9.86263989e-01 8.75390437e-02
4.18397253e-01 -9.06355839e-01 -5.88450678e-02
-6.49859875e-01 4.20977854e-01 6.32819697e-01
-9.64397846e-01 -1.92425277e-01 -1.81408448e-01
5.82746937e-03 -9.98890345e-01 -4.67337955e-02
-2.46158928e-01 -6.17940031e-01 -7.46695884e-01
7.40909404e-01 -6.71576305e-01 -6.20601858e-03
-1.62520972e-01 -7.74595536e-01 6.11219795e-01
4.38004069e-01 8.66981458e-01 -2.37687229e-01
2.34036401e-01 -8.05372603e-01 -5.44610954e-01
-6.16524745e-01 2.18558615e-01 -7.56391563e-01
-9.95188122e-01 9.49492995e-02 2.41923254e-02
-1.94724186e-01 4.69800549e-01 8.61029191e-01
4.49292929e-01 1.83947182e-01 8.74242903e-01
-1.87112953e-01 -8.55560904e-01 -4.82704398e-01
-6.66097568e-01 -6.24021185e-01 4.08548924e-01
8.89426245e-02 -9.70378610e-01 -2.24620158e-01
5.96329132e-01 4.99953997e-01 -6.28041873e-01
-5.83341045e-01 1.64791581e-01 7.95335270e-01
3.24629835e-01 -9.39110209e-01 1.12639523e-01
-5.33785488e-01 6.87396056e-01 4.92504291e-01
9.28162902e-01 -8.81953305e-02 3.61574021e-01
-7.45191833e-01 -1.31132475e-01 6.53830573e-01
-5.03292425e-01 -6.71785720e-01 5.43508531e-01
4.29196605e-01 5.69185194e-01 -7.01296943e-01
7.33563879e-01 -2.80766574e-01 -6.18912925e-01
-6.06892191e-01 -2.83018128e-02 7.94280874e-01
-1.85052293e-01 4.01535180e-01 -8.96952483e-01
-5.97554499e-01 -7.86029954e-01 -1.58383353e-01
-9.60243778e-01 -2.15827896e-01 1.77060665e-01
1.94724264e-01 -4.69800590e-01 8.61029153e-01
1.30658054e-01 4.48222774e-01 8.84322446e-01
9.81660669e-01 1.01462840e-02 1.90367224e-01
3.05498162e-01 -9.20403743e-01 -2.43982471e-01
-3.54866292e-01 8.85523838e-01 2.99863151e-01
-9.64229541e-02 -4.01594986e-02 9.94530729e-01
2.59017455e-01 9.15710851e-01 -3.07218356e-01
5.33785779e-01 -6.87396144e-01 4.92503857e-01
-6.42083168e-02 -1.51639999e-01 -9.86347339e-01
1.10026852e-01 2.42636153e-01 9.63858539e-01
-4.94857870e-01 8.39534265e-01 -2.24271169e-01
-7.96392056e-01 -4.85265894e-01 -3.60937869e-01
-8.95955432e-01 4.02619120e-01 1.87515322e-01
4.68714920e-01 -5.57711208e-01 -6.85028081e-01
1.09813535e-02 9.31868781e-01 3.62630040e-01
3.73742842e-01 -5.32723723e-01 7.59291052e-01
-3.73742640e-01 5.32723728e-01 7.59291146e-01
2.98876457e-01 5.12516094e-01 8.04985319e-01
-8.85614599e-01 -3.24969311e-01 3.31786440e-01
-3.24628365e-01 9.39110714e-01 1.12639532e-01
9.71153087e-01 -1.92271306e-01 -1.41043293e-01
-6.96069374e-01 -6.61032358e-01 -2.80219936e-01
1.19063755e-01 7.62518875e-01 -6.35914932e-01
8.54789110e-01 -1.45331743e-01 -4.98210289e-01
-6.96071403e-03 8.43354994e-01 5.37312510e-01
3.54867149e-01 -8.85523538e-01 2.99863031e-01
5.22783346e-01 -5.57590799e-01 6.44818638e-01
-8.54789518e-01 1.45332649e-01 -4.98209321e-01
-8.04205839e-01 4.85206545e-01 3.43260991e-01
4.03477268e-01 2.46238536e-01 -8.81232836e-01
6.96069632e-01 6.61031770e-01 -2.80220684e-01
-7.77818475e-01 -4.36207082e-01 4.52462707e-01
9.07203618e-01 -3.94035642e-01 -1.47367844e-01
-7.99181830e-01 5.78159973e-01 -1.64435978e-01
5.86078393e-01 3.98636697e-01 7.05409098e-01
2.78654065e-01 3.16879564e-01 9.06609430e-01
1.99308935e-01 9.47227942e-01 2.51068840e-01
-5.00051961e-02 -6.42120312e-01 -7.64970457e-01
-2.78274799e-01 -1.19270777e-01 9.53068253e-01
-1.27620362e-01 -9.75541918e-01 -1.78971319e-01
4.74314358e-01 -1.47383732e-01 -8.67930055e-01
6.78303075e-01 -6.56315291e-01 3.30387185e-01
8.04205954e-01 -4.85206472e-01 3.43260829e-01
-4.29197737e-01 -5.69185288e-01 -7.01296174e-01
-1.85183109e-01 8.76629607e-01 4.44104081e-01
-4.03478917e-01 -2.46238583e-01 -8.81232068e-01
8.28003605e-01 -4.62754786e-01 -3.16650515e-01
-9.94244506e-01 -1.06832753e-01 8.03963812e-03
3.12773314e-02 9.84622797e-01 1.71871875e-01
7.90595360e-01 -5.87189624e-01 1.73688211e-01
-8.71853538e-01 -4.89697735e-01 -8.21722824e-03
7.18483437e-01 -4.77507293e-01 -5.05734667e-01
5.19632424e-01 3.77882529e-01 -7.66280465e-01
3.11893643e-01 9.44585188e-01 -1.02376843e-01
1.67372746e-01 4.77407345e-01 -8.62593330e-01
4.16347655e-01 -1.93303014e-01 8.88419919e-01
-3.11892345e-01 -9.44585616e-01 -1.02376863e-01
2.26942250e-01 -9.70525174e-01 -8.11047331e-02
5.31835966e-01 -3.58835140e-01 7.67065211e-01
-8.35418633e-01 1.73876505e-01 5.21386109e-01
6.37170883e-01 5.22654897e-01 5.66432699e-01
8.94816243e-01 4.15219433e-01 1.64002952e-01
7.99181965e-01 -5.78159437e-01 -1.64437219e-01
4.99178612e-02 9.32087954e-01 -3.58775271e-01
-7.44354600e-01 -4.11690710e-01 -5.25781488e-01
-7.04935795e-01 6.13886614e-01 -3.55257931e-01
1.44627877e-01 -2.19784980e-01 -9.64767249e-01
8.65539502e-01 -5.00665673e-01 1.32392443e-02
-3.62276018e-01 -8.74574886e-01 3.22297000e-01
9.60243948e-01 2.15827538e-01 1.77060189e-01
2.61340960e-01 -7.79941538e-02 9.62091111e-01
7.38204899e-01 6.71080787e-01 -6.85856950e-02
-2.78654121e-01 -3.16879532e-01 9.06609424e-01
4.79325109e-01 8.77274940e-01 -2.52206422e-02
-4.99169276e-02 -9.32087892e-01 -3.58775567e-01
-6.37170705e-01 -5.22655241e-01 5.66432581e-01
-3.15842447e-01 -7.31825709e-01 -6.03882228e-01
9.25625555e-01 1.19737175e-01 -3.58998308e-01
8.71853962e-01 4.89696965e-01 -8.21829992e-03
-4.18396166e-01 9.06356380e-01 -5.88444335e-02
-7.18483618e-01 4.77508323e-01 -5.05733434e-01
6.52903637e-01 -7.41274630e-01 1.55656696e-01
-9.60962197e-01 1.97901897e-01 1.93356649e-01
9.64397864e-01 1.92424478e-01 -1.81409206e-01
-9.71153189e-01 1.92271064e-01 -1.41042905e-01
-6.32115784e-01 -7.73154100e-01 5.15989678e-02
-1.19064482e-01 -7.62518848e-01 -6.35914830e-01
6.63308536e-01 7.10066271e-01 2.36279587e-01
-4.16347592e-01 1.93303031e-01 8.88419944e-01
-1.03452254e-01 3.36820341e-02 -9.94063182e-01
4.14068431e-02 -3.65039468e-01 9.30071558e-01
3.65317278e-01 -3.71050716e-01 8.53736480e-01
3.79684738e-01 8.16001291e-01 -4.35867775e-01
-8.65539326e-01 5.00665953e-01 1.32399774e-02
-2.61637264e-01 -1.06325959e-01 -9.59291012e-01
3.48983534e-01 4.37027667e-01 -8.28984937e-01
-1.91388968e-01 7.72799116e-01 6.05105550e-01
-2.19277638e-01 2.71200619e-01 9.37213419e-01
8.35418662e-01 -1.73876561e-01 5.21386047e-01
3.36024521e-01 -4.87226756e-01 -8.06037444e-01
-9.07203676e-01 3.94035821e-01 -1.47366998e-01
-5.82560115e-03 9.98890369e-01 -4.67334810e-02
-5.19633960e-01 -3.77882510e-01 -7.66279432e-01
7.81478967e-01 6.13536139e-01 1.13420483e-01
-5.26092457e-01 7.86746414e-01 3.22888999e-01
1.62521202e-01 7.74595427e-01 6.11219871e-01
4.96758140e-01 -8.57006167e-01 1.37010930e-01
-7.27484588e-01 -3.23539491e-01 6.05053145e-01
-1.44629702e-01 2.19784995e-01 -9.64766972e-01
-2.34036174e-01 8.05373128e-01 -5.44610272e-01
1.27621864e-01 9.75541747e-01 -1.78971171e-01
-5.48392820e-01 -7.52234796e-01 -3.65249997e-01
5.83341067e-01 -1.64791805e-01 7.95335209e-01
4.94858353e-01 -8.39533726e-01 -2.24272127e-01
8.42455508e-01 2.21472133e-01 4.91141092e-01
-5.86078374e-01 -3.98636971e-01 7.05408958e-01
-4.74315722e-01 1.47383775e-01 -8.67929302e-01
9.38479682e-01 -7.11275058e-02 -3.37929345e-01
-4.96756950e-01 8.57006733e-01 1.37011686e-01
-2.18684695e-01 -2.95899138e-01 -9.29849054e-01
-9.49114255e-02 7.38662444e-01 -6.67359409e-01
6.96103331e-03 -8.43355067e-01 5.37312394e-01
-5.21646032e-01 -7.66867319e-01 3.73899068e-01
-7.47025491e-01 8.40111922e-02 -6.59464943e-01
-5.86614501e-01 6.09056524e-01 -5.33790922e-01
-2.33292854e-02 5.59153491e-01 8.28736630e-01
1.03450467e-01 -3.36820003e-02 -9.94063370e-01
1.40074751e-01 -9.86263730e-01 8.75388905e-02
-9.15118952e-01 2.63294296e-01 -3.05340700e-01
7.38760839e-01 -5.95679273e-02 6.71330862e-01
5.07075134e-01 8.41624038e-01 1.85860365e-01
6.56640416e-01 5.94928878e-01 -4.63553961e-01
-7.27057113e-01 -1.11396691e-01 -6.77478915e-01
-8.19131759e-01 -5.43533320e-01 -1.83287769e-01
-6.63307491e-01 -7.10067159e-01 2.36279850e-01
-3.65317310e-01 3.71050750e-01 8.53736450e-01
2.46157797e-01 6.17939910e-01 -7.46696356e-01
6.77819186e-01 -5.48949396e-01 4.89097609e-01
8.51061589e-01 4.15026421e-02 -5.23422290e-01
-1.10026794e-01 -2.42636252e-01 9.63858521e-01
-1.09806037e-02 -9.31868890e-01 3.62629787e-01
2.18682914e-01 2.95899028e-01 -9.29849507e-01
-8.89411853e-02 9.70378803e-01 -2.24619888e-01
6.42065410e-02 1.51639999e-01 -9.86347455e-01
-7.95861761e-01 -5.33057250e-01 2.87148864e-01
-7.33564356e-01 2.80767283e-01 -6.18912035e-01
-3.21621898e-01 -6.75077895e-01 6.63950465e-01
5.97555224e-01 7.86029321e-01 -1.58383761e-01
-3.35958385e-01 2.82049724e-01 -8.98653728e-01
-6.78302685e-01 6.56315485e-01 3.30387593e-01
-2.20998995e-02 4.98062177e-01 -8.66858880e-01
