1.37100151e-01 -7.19817404e-01 6.80488699e-01
4.17462604e-01 -5.02262073e-01 -7.57271324e-01
-8.14731502e-01 5.72252528e-01 -9.34861323e-02
2.54125686e-01 6.16461643e-01 -7.45249619e-01
-2.61612441e-01 -6.36764936e-01 7.25318954e-01
-9.30481162e-01 2.47752874e-01 2.69856394e-01
2.08362323e-01 2.87481909e-01 9.34845915e-01
-7.01186487e-01 -6.97931248e-01 1.45702287e-01
9.63693304e-02 5.29341276e-01 -8.42919230e-01
8.58311288e-02 -7.90291660e-02 9.93169121e-01
-4.09211487e-02 2.15110010e-01 -9.75733358e-01
-8.37837257e-01 3.81121628e-01 -3.90865525e-01
-3.76116398e-01 -8.04174458e-01 -4.60262069e-01
-3.13666723e-01 7.51031119e-01 5.81002399e-01
-4.93671877e-01 7.04484291e-01 5.09890647e-01
6.59162269e-01 -1.59685205e-01 -7.34852176e-01
8.07281188e-02 -5.82231896e-01 8.09003737e-01
-6.25453198e-01 -4.13708543e-01 -6.61555157e-01
4.43861917e-01 3.42640031e-01 -8.28001515e-01
-2.86060604e-01 -6.01844816e-01 -7.45623313e-01
-7.24006503e-01 3.60860322e-01 -5.87873928e-01
1.42949608e-01 -9.72734575e-01 1.82626910e-01
6.73676228e-01 8.41058492e-02 7.34223904e-01
3.64480074e-01 -8.10258388e-01 4.58949501e-01
-4.62871311e-02 -9.70847087e-01 2.35187180e-01
8.12443941e-01 1.29151027e-01 5.68553851e-01
-4.37046133e-02 -2.56547181e-01 9.65541833e-01
-5.47475327e-01 -7.19138070e-01 -4.27916300e-01
-7.01034263e-01 -6.10694453e-01 -3.68244773e-01
-1.92919482e-01 -3.72297597e-01 9.07840462e-01
-2.64549074e-01 6.30307019e-01 -7.29882567e-01
-7.61287643e-01 -2.94815223e-01 -5.77517570e-01
-8.78404293e-01 -3.83906112e-02 4.76372485e-01
2.57392109e-01 -9.09566426e-01 3.26247739e-01
-2.47351832e-01 -7.46564575e-01 -6.17624553e-01
4.39874123e-01 1.55797041e-01 -8.84443507e-01
9.32372655e-01 2.83113739e-01 2.24782852e-01
-7.93784858e-01 -5.57086339e-01 2.44048756e-01
7.62233046e-01 -6.10842768e-01 2.14176462e-01
1.93863314e-01 -2.80910556e-01 -9.39951459e-01
-7.85320233e-01 -1.44133568e-01 6.02076442e-01
1.72639203e-01 8.77468374e-01 -4.47488499e-01
-6.98063183e-01 6.84150674e-01 2.11293392e-01
7.86464989e-01 -4.81055538e-01 3.87372674e-01
9.67583981e-01 5.38762231e-02 -2.46737369e-01
6.96183303e-02 -5.76832004e-01 -8.13892079e-01
9.79947855e-01 -1.99023872e-01 -9.58543333e-03
4.05339502e-01 -9.11665230e-01 -6.75780067e-02
-9.71990402e-01 4.97134522e-02 -2.29703482e-01
-9.65920120e-01 2.47915788e-01 7.44024938e-02
-9.44040125e-02 -6.63844148e-01 -7.41890040e-01
4.51243065e-01 -8.52545359e-02 8.88318168e-01
9.01119088e-01 -8.42873763e-02 -4.25301348e-01
1.51106086e-01 -8.35671168e-01 -5.28036142e-01
7.06982724e-01 5.63186997e-01 -4.27781378e-01
-9.97480296e-01 5.89834649e-02 -3.94205327e-02
-9.06943902e-01 5.09116553e-02 -4.18164690e-01
-7.83468762e-01 5.35830638e-01 3.14739941e-01
-1.18527521e-02 -8.93393742e-01 -4.49119630e-01
-4.50670977e-02 1.04361354e-01 9.93516536e-01
-4.88439417e-01 7.31944816e-01 -4.75062879e-01
-5.74311168e-01 -6.14191029e-01 5.41234447e-01
-5.59648907e-01 8.23350048e-01 -9.42752281e-02
-8.92139379e-01 4.04770795e-01 -2.00619687e-01
-6.84179418e-01 7.02717100e-01 -1.95160152e-01
-8.87432889e-01 -4.46977718e-01 1.12576529e-01
1.34103964e-01 1.29382538e-01 -9.82486021e-01
-3.50388243e-01 8.50819435e-01 -3.91580344e-01
-9.77293090e-02 8.01731272e-01 5.89639116e-01
8.96092474e-02 8.40426147e-01 5.34464748e-01
-1.18573733e-01 7.43067092e-01 -6.58629708e-01
9.21765773e-01 2.53079739e-01 -2.93767460e-01
4.07287780e-01 6.69612094e-01 -6.21077947e-01
-1.70808855e-01 -1.29652494e-01 -9.76737968e-01
7.73192002e-01 -5.56685033e-02 6.31722756e-01
-8.64118111e-01 1.81560775e-01 4.69397741e-01
8.69855561e-01 -4.48068489e-01 2.06362775e-01
5.96291386e-01 3.79275304e-01 -7.07522885e-01
9.73886158e-01 2.00969325e-01 -1.05628749e-01
7.33935940e-01 -4.69100041e-01 -4.91207303e-01
3.28172268e-01 -7.08316815e-01 6.24971064e-01
9.98831257e-01 6.40254126e-03 -4.79100156e-02
-3.08555167e-01 -8.41374725e-01 4.43713046e-01
1.94746096e-02 -4.25473654e-01 9.04760015e-01
-8.34298732e-01 2.22514266e-01 -5.04414681e-01
9.02625811e-01 1.00155401e-01 -4.18612826e-01
9.85089647e-01 1.45800694e-01 9.13258232e-02
-2.18215936e-01 2.89993804e-01 -9.31819560e-01
-3.74325345e-01 -9.23447741e-01 8.44080276e-02
2.73722933e-01 8.42682145e-01 4.63639142e-01
-1.94777236e-01 2.31979887e-01 9.53018712e-01
-8.42815346e-02 -9.54961127e-01 -2.84511443e-01
-5.44635631e-01 -1.68497459e-01 8.21570756e-01
2.25494372e-01 -4.68192123e-01 -8.54371533e-01
-1.28144846e-01 4.12790737e-01 9.01765111e-01
-6.31850769e-01 -2.29661293e-01 -7.40285181e-01
1.51346610e-01 1.07553022e-01 9.82610831e-01
7.02882711e-01 -3.22391599e-01 -6.34051507e-01
-9.38118207e-01 -2.83815798e-01 1.98449629e-01
1.24071912e-01 9.80186829e-01 1.54400067e-01
-5.42804729e-02 -7.93188886e-01 -6.06553136e-01
-9.28851141e-01 -3.03946916e-01 -2.11783646e-01
6.29115675e-01 7.74276535e-01 6.86226901e-02
-1.55032267e-01 8.62418164e-01 -4.81872344e-01
-9.08909034e-01 4.16950746e-01 -6.02256193e-03
3.44605845e-01 -2.59978368e-01 9.02028742e-01
-1.85025960e-02 5.91226064e-04 -9.99829911e-01
6.28030184e-01 4.30505313e-01 6.48260448e-01
1.10670312e-01 -7.20316642e-01 -6.84761205e-01
-1.92210422e-01 8.34005082e-02 -9.77804665e-01
-5.45026841e-01 5.36038223e-02 8.36701957e-01
-1.94804429e-01 -7.80963717e-01 5.93418500e-01
-5.71302745e-01 8.13691122e-01 1.07328649e-01
-8.32090757e-01 -4.68984008e-01 -2.96107603e-01
8.43295691e-01 -4.25241624e-01 -3.28668461e-01
5.24048228e-01 -8.48500847e-01 7.36193011e-02
6.46005892e-01 -5.23543115e-01 5.55497754e-01
-6.72768657e-02 4.18263160e-01 -9.05832200e-01
8.10631473e-01 6.41566654e-02 -5.82032737e-01
-8.54335290e-01 -3.98121865e-01 3.34079798e-01
4.47998844e-01 -8.54784072e-01 -2.61996385e-01
8.78156582e-01 -3.12403122e-01 3.62276895e-01
6.31503459e-02 -9.86118906e-01 -1.53564707e-01
7.93648523e-01 -1.24680834e-01 -5.95464817e-01
-2.33169179e-01 -9.34765044e-01 2.68040872e-01
3.70531943e-01 -3.39592129e-01 -8.64514648e-01
-9.54517142e-01 -2.98033133e-01 -8.55788143e-03
-9.63757114e-01 2.37994927e-01 -1.20543710e-01
-4.88233913e-01 -7.56153465e-01 4.35727614e-01
9.13154892e-01 -2.42670588e-01 -3.27505908e-01
3.72364789e-02 -4.03793194e-01 -9.14093491e-01
4.36963762e-01 -8.62831236e-01 2.54134795e-01
-4.65159708e-01 -5.19508038e-01 -7.16756382e-01
6.84971147e-01 2.78439934e-02 -7.28039266e-01
-1.53921822e-01 -3.27561901e-01 -9.32209038e-01
-6.51070364e-01 6.32170627e-01 4.20079055e-01
-1.41852318e-01 -9.84246590e-01 -1.05532006e-01
-1.03675910e-01 -7.70365374e-02 9.91621980e-01
3.11754209e-01 8.95609166e-01 -3.17323519e-01
-1.85178120e-01 6.74984558e-01 7.14214913e-01
-9.55309046e-01 -1.10830049e-01 2.74044764e-01
-2.52115904e-01 3.99611849e-02 9.66870298e-01
-4.64954174e-02 9.12832999e-01 4.05675835e-01
3.68224960e-01 7.96768705e-01 -4.79135814e-01
-9.40034123e-01 6.93523511e-02 3.33953771e-01
5.58115953e-01 2.73554357e-01 7.83372592e-01
-7.48897305e-01 -1.15241735e-01 -6.52590042e-01
-1.90018392e-01 -9.78448773e-01 8.08143683e-02
4.66013940e-01 -7.61999287e-01 -4.49654798e-01
-4.82603668e-01 -3.45607032e-01 -8.04768001e-01
-7.03804870e-01 7.10376685e-01 4.84163227e-03
7.01460659e-01 5.18875618e-01 4.88589584e-01
2.03427691e-01 -9.78907786e-01 -1.88937631e-02
9.39990810e-01 3.39637525e-01 3.26128333e-02
5.94290407e-01 1.91051716e-01 -7.81229916e-01
-7.83127621e-01 5.53170065e-01 -2.84103036e-01
8.01297347e-01 5.53406756e-01 -2.27297381e-01
1.20018227e-02 2.82205238e-01 9.59277678e-01
6.24543746e-01 -7.51185535e-01 2.13693874e-01
7.47114684e-01 5.86689462e-01 3.12432889e-01
4.80661101e-01 8.54656602e-01 1.96281425e-01
8.90187248e-01 2.11044815e-01 4.03764522e-01
4.66759469e-01 -5.54581966e-01 6.88892477e-01
-7.17964474e-01 4.70268929e-01 5.13198467e-01
5.27493742e-01 -2.60279788e-01 8.08704418e-01
-5.27585322e-01 7.98762049e-01 -2.89194471e-01
-7.58103777e-01 2.85192108e-01 5.86466100e-01
5.96515798e-03 -9.99234817e-01 3.86559726e-02
-5.68258839e-01 5.53743445e-01 6.08644696e-01
8.31191706e-01 4.20320211e-01 -3.63939856e-01
-8.57543403e-02 5.91868008e-01 -8.01461401e-01
9.16762259e-01 -3.98738398e-01 2.35536739e-02
8.41148652e-01 -1.87080367e-01 5.07413761e-01
-2.51248043e-01 4.69760531e-01 -8.46286892e-01
5.96414392e-01 -4.01614371e-01 6.94977802e-01
-9.84253236e-01 -1.28638429e-01 -1.21235036e-01
1.32613527e-01 -9.33958827e-01 -3.31866835e-01
1.10647796e-01 9.93026829e-01 -4.06781922e-02
6.81747427e-02 6.92445951e-01 -7.18242661e-01
-3.98237436e-01 8.29997412e-01 3.90525342e-01
8.19526255e-01 -5.72172592e-01 3.15494542e-02
5.94007045e-01 -5.00021115e-01 -6.30187500e-01
5.51049014e-01 -3.55910339e-01 -7.54768091e-01
-3.34789982e-01 -2.45562372e-01 -9.09734639e-01
1.54579630e-01 -2.62328374e-01 9.52515933e-01
3.09264594e-01 9.10045873e-01 2.75991098e-01
2.82407063e-01 9.53345154e-01 -1.06674261e-01
-6.64570386e-01 -2.61886550e-01 6.99828422e-01
6.70581333e-01 -6.29952482e-01 3.91764912e-01
-4.09745089e-01 -8.71464762e-01 2.69550654e-01
6.90393717e-01 -7.22534726e-01 3.60584420e-02
-5.05563961e-01 -8.56780536e-01 -1.01649148e-01
3.92301936e-01 2.83357231e-01 8.75103214e-01
2.73200784e-01 4.45187969e-01 -8.52743296e-01
-5.88511106e-01 5.49773931e-01 -5.92793928e-01
7.00423713e-01 -2.34887163e-01 6.73968140e-01
-5.58415751e-01 7.69993540e-01 3.08675882e-01
-8.81683824e-01 -4.61204306e-01 -9.96215566e-02
-2.00117780e-01 9.33843433e-01 -2.96462267e-01
-2.37524244e-01 9.29809949e-01 2.81131240e-01
2.19911311e-01 7.62085005e-01 -6.08988423e-01
6.18605284e-01 -9.04102714e-02 7.80481639e-01
-6.64167267e-01 1.71728807e-01 7.27591294e-01
2.82976493e-01 4.53918533e-01 8.44914237e-01
-6.70100657e-01 -7.40632417e-01 -4.92840168e-02
-2.47716731e-01 9.64139108e-01 9.52457381e-02
3.39655494e-01 1.03952399e-01 9.34786438e-01
-3.92562586e-01 6.14603609e-01 6.84218616e-01
4.64060797e-01 4.49731851e-01 7.63142757e-01
4.32444853e-01 5.15876406e-01 -7.39503093e-01
-9.23004253e-01 2.23739555e-01 -3.13056551e-01
-3.86707870e-01 9.00439772e-01 -1.99162083e-01
3.30139639e-01 -9.36502574e-01 1.18197550e-01
-8.60798577e-01 -1.27479611e-01 -4.92722978e-01
-4.30988413e-01 -6.72776621e-01 -6.01350322e-01
9.72524746e-01 -1.25164889e-01 -1.96290627e-01
-5.16516916e-01 2.66770114e-01 8.13659508e-01
7.23079928e-01 4.14709656e-01 -5.52424419e-01
-7.44584052e-01 -4.60495214e-01 -4.83259737e-01
5.78641672e-01 -8.07481787e-01 -1.14662512e-01
8.90975130e-01 5.82602364e-04 4.54050580e-01
5.04198422e-01 -1.92345825e-01 -8.41896239e-01
-6.35890215e-01 -4.50242010e-01 6.26836642e-01
3.10461969e-01 4.06892158e-02 -9.49715855e-01
7.21451058e-03 -2.12459701e-01 -9.77144491e-01
6.11522381e-01 -6.31401528e-01 -4.76837388e-01
-3.31134880e-01 -4.73459061e-01 8.16201063e-01
7.08385299e-02 -9.20011897e-01 3.85433793e-01
-4.56864055e-02 9.83133485e-01 -1.77091973e-01
-4.52231476e-01 -8.45215649e-01 -2.84777150e-01
-4.16328911e-01 8.87183631e-01 1.98933960e-01
3.50688588e-01 6.04487047e-01 7.15269902e-01
-1.25536877e-01 -5.41773243e-01 8.31095790e-01
7.58166382e-01 -3.62881781e-01 5.41755783e-01
-6.66925297e-01 -6.49536348e-01 3.65119555e-01
-2.21514827e-01 8.61355727e-01 4.57160958e-01
7.60278829e-01 6.37776972e-01 1.23354355e-01
-6.76118270e-01 -4.67318395e-02 7.35308284e-01
-4.12891591e-01 9.10779808e-01 -6.76840130e-04
9.88476895e-01 -6.17471962e-02 1.38204525e-01
-2.39676012e-03 -8.22620619e-01 5.68584449e-01
-3.30392419e-01 -9.38325837e-01 -1.01911068e-01
-8.39225146e-01 3.67430625e-01 4.00867432e-01
9.57767396e-01 7.72455296e-02 2.76973177e-01
5.27887309e-01 5.87450968e-01 6.13379769e-01
3.44131895e-01 -1.42045565e-01 -9.28115688e-01
2.77532914e-01 -5.82135652e-01 7.64258960e-01
-2.53190107e-01 -1.84877108e-01 9.49585598e-01
2.69337893e-01 -6.23188571e-01 -7.34230974e-01
-6.20469432e-01 -7.46511197e-01 -2.40290222e-01
8.36518392e-02 4.49501739e-01 8.89352695e-01
4.06657425e-01 7.25248041e-01 5.55556943e-01
-1.19018693e-01 -8.96128268e-01 4.27536829e-01
-2.75134229e-01 -9.18205945e-01 -2.84955893e-01
7.86457776e-01 3.41605088e-01 5.14576381e-01
-6.22569922e-02 -6.94311534e-01 7.16975490e-01
7.04085533e-01 2.56319230e-01 6.62240413e-01
-1.98959625e-01 -8.65702817e-01 -4.59320157e-01
1.07823755e-01 3.42471928e-01 -9.33321673e-01
-2.96652010e-01 7.68190236e-01 -5.67346996e-01
-5.16881593e-01 -3.79331464e-01 7.67423684e-01
-5.54379927e-01 2.14843913e-01 -8.04056547e-01
-1.24931663e-01 -5.07276049e-01 -8.52681266e-01
5.52894045e-01 6.83337719e-01 -4.76821657e-01
-7.67123207e-01 -6.16480405e-01 -1.77410168e-01
5.23985135e-01 -8.92490214e-03 -8.51681959e-01
7.27612967e-01 -6.70361908e-01 -1.45584567e-01
-3.90826821e-01 -2.86867455e-01 8.74619480e-01
9.05363638e-01 3.92270748e-01 -1.62606256e-01
-5.13253663e-02 5.74492300e-01 8.16897858e-01
8.54659131e-01 5.18682722e-01 -2.29362057e-02
8.23837869e-01 -2.85462174e-01 -4.89697778e-01
-4.07196180e-01 3.36672578e-01 -8.49025852e-01
8.40425821e-01 4.14314791e-01 3.49323388e-01
9.30729811e-01 -3.31330217e-01 -1.54799471e-01
6.26163256e-01 7.33970827e-01 2.63069708e-01
3.04028589e-02 7.14173861e-01 6.99306408e-01
-6.23761673e-01 3.78439867e-01 6.83887968e-01
-9.86535658e-01 6.64897807e-02 1.49418847e-01
9.38478446e-01 -1.28101995e-01 3.20698309e-01
-2.31211263e-01 9.67702642e-01 -1.00463907e-01
-5.04511783e-01 4.07812216e-02 -8.62442393e-01
-7.84846772e-01 7.05667690e-02 6.15657533e-01
2.72617534e-01 -9.40298170e-01 -2.03763977e-01
1.60948230e-01 5.99695130e-01 7.83874562e-01
4.57207958e-01 8.03406970e-01 3.81440768e-01
-3.42013340e-01 -4.77058117e-02 -9.38484624e-01
-6.39639198e-01 6.61909817e-01 -3.90816946e-01
9.48563642e-01 -2.63996746e-01 1.74735381e-01
-4.58252121e-01 4.53163352e-01 7.64621397e-01
-7.75656704e-01 -3.30917072e-01 5.37446896e-01
3.05617544e-01 -8.63387228e-01 -4.01449413e-01
2.76636813e-02 8.26129562e-01 -5.62801876e-01
2.77501443e-01 2.55421514e-01 -9.26150715e-01
-3.31957934e-01 3.48567313e-01 8.76528619e-01
-3.64725984e-01 1.59879690e-01 -9.17287144e-01
-6.53264394e-01 7.55457016e-03 -7.57093395e-01
2.18144998e-01 -4.31827317e-01 8.75177584e-01
1.30710674e-01 9.29940409e-01 3.43692484e-01
-8.88583949e-01 4.15644966e-01 1.94054497e-01
-2.63043321e-01 5.23508157e-01 8.10398190e-01
-4.07879616e-01 -6.61150440e-02 9.10637503e-01
-8.14741863e-01 5.70328731e-01 1.04500553e-01
-8.02730478e-01 -5.96001565e-01 2.01463609e-02
3.08871289e-01 -7.50530606e-01 -5.84212291e-01
-4.31668366e-01 4.98987109e-01 -7.51449305e-01
-8.02947820e-01 5.57625679e-02 -5.93436381e-01
-3.11088596e-01 -4.34824845e-01 -8.45075994e-01
-5.45824377e-01 -8.33869730e-01 8.20786332e-02
-8.36608142e-03 9.27188255e-01 -3.74503313e-01
-4.59886663e-01 -5.55707962e-01 6.92597430e-01
5.08629802e-01 -6.66519722e-01 5.45019248e-01
5.79636664e-01 5.46003238e-01 -6.04899424e-01
1.38021446e-01 9.58939813e-01 -2.47759939e-01
-5.68680510e-02 9.74012744e-01 2.19236070e-01
-5.83514822e-01 3.85618617e-01 -7.14710021e-01
4.08418324e-01 -4.21143995e-01 8.09833484e-01
-6.73619455e-02 9.97378994e-01 2.64054912e-02
8.45648488e-01 -5.11907767e-01 -1.51094857e-01
5.07612754e-01 7.94580183e-01 -3.33125185e-01
-9.40200350e-01 -1.30887935e-01 -3.14471559e-01
5.30469566e-01 -7.57521230e-01 3.80477148e-01
-7.20593066e-01 5.10274090e-01 -4.69432636e-01
8.32623693e-01 2.65734848e-01 -4.85925989e-01
7.26746530e-01 2.29998369e-01 -6.47257234e-01
5.90271070e-01 6.72905612e-01 4.45844045e-01
7.38979755e-01 -5.90436422e-01 -3.24491571e-01
-9.89777784e-01 -1.20603165e-01 7.61217656e-02
7.41058030e-01 6.67044372e-01 -7.67135193e-02
-8.62928281e-01 -3.06000674e-01 -4.02143439e-01
-7.36673259e-01 -5.00048117e-01 4.55261719e-01
2.71499168e-01 -7.95418664e-02 9.59144878e-01
6.68361568e-01 6.86919989e-01 -2.85367176e-01
-4.32516245e-01 6.44712455e-01 -6.30299122e-01
3.01077577e-01 9.49588068e-01 8.73752409e-02
1.57229133e-01 -8.28847620e-02 -9.84079091e-01
4.41595571e-01 8.79514143e-01 -1.77337436e-01
1.85807474e-01 -8.33096945e-01 5.20983600e-01
-7.02147591e-01 1.92854992e-01 -6.85417638e-01
6.02784848e-01 7.87250439e-01 -1.29951655e-01
5.15225009e-01 9.48219924e-02 8.51792143e-01
6.04784888e-01 -7.37182104e-01 -3.01328329e-01
-5.72231172e-01 -7.77061660e-01 2.62156572e-01
-8.81876117e-01 -2.25177124e-01 4.14232610e-01
-3.90047616e-01 1.55674118e-01 9.07538449e-01
4.58252626e-01 -6.38950821e-01 -6.17857692e-01
-5.99041465e-01 -5.76326045e-01 -5.55876841e-01
-3.84552425e-01 -7.08642354e-01 5.91560668e-01
-5.04350954e-01 -1.47920564e-01 -8.50736008e-01
8.64837956e-01 4.73031866e-01 1.68213414e-01
4.68400543e-01 8.83454894e-01 1.04043142e-02
2.22756770e-01 7.36834872e-01 6.38319713e-01
