4.38631954e-01 -3.00465178e-01 8.46948068e-01
-8.22269538e-01 1.94829028e-01 5.34708717e-01
-1.29915045e-01 9.61649921e-01 -2.41561553e-01
7.08847417e-01 -1.73190711e-01 6.83768221e-01
-1.68607096e-01 -7.49651683e-01 -6.39996291e-01
-8.27756923e-01 -5.39466873e-01 1.54251961e-01
-9.41966651e-01 3.12834315e-01 -1.21793913e-01
7.22766797e-01 6.07326287e-01 3.29791289e-01
-9.08533189e-01 3.09686347e-02 4.16662422e-01
8.91553787e-01 3.96470890e-01 -2.18959144e-01
8.43231540e-01 -2.89760420e-01 -4.52769649e-01
8.04038304e-02 7.81415714e-01 6.18808126e-01
7.28172470e-01 4.07731432e-01 -5.50927409e-01
1.74693772e-01 -7.96417551e-01 -5.78966581e-01
3.55828818e-01 -5.91998735e-02 -9.32675212e-01
-2.17520176e-01 5.53780797e-02 9.74482599e-01
7.86775711e-01 6.16805781e-01 -2.31226278e-02
-9.06403048e-01 2.10875942e-01 3.66011115e-01
-8.30015995e-01 3.74392492e-01 4.13404042e-01
7.30571953e-02 -9.27995847e-01 3.65356866e-01
7.83513550e-02 -5.53423794e-01 -8.29207326e-01
7.67547100e-01 1.79032355e-01 6.15481650e-01
-9.61220369e-01 -8.07422193e-02 2.63695999e-01
-9.35479332e-01 2.09511379e-01 -2.84576805e-01
-6.92604058e-01 -3.61315231e-01 6.24299368e-01
4.54372196e-01 -6.31665281e-01 6.28127098e-01
5.76047494e-01 7.61951927e-01 2.95969538e-01
-4.71070285e-03 7.19756657e-01 -6.94211439e-01
-8.37425140e-01 4.84255943e-01 2.53406434e-01
5.68526393e-01 -1.46723095e-01 8.09474206e-01
-9.07598145e-03 -8.43530080e-01 -5.37006220e-01
-5.29894370e-01 -7.95180387e-01 -2.94789220e-01
-4.07399956e-01 -8.83095787e-01 2.32737300e-01
-7.03306132e-01 -6.91706859e-01 1.64017634e-01
5.25303010e-01 8.44567168e-01 -1.03746083e-01
5.86419998e-01 6.64576141e-01 4.63086637e-01
5.81679734e-01 -7.51063733e-01 3.12332106e-01
-7.44792346e-02 9.84541585e-01 1.58525714e-01
-5.57135173e-01 3.85902259e-01 -7.35310332e-01
9.06403080e-01 -2.10876486e-01 3.66010721e-01
-1.10550871e-01 7.10571379e-01 6.94885215e-01
-3.56991846e-01 -7.19545086e-02 9.31331063e-01
-7.83519586e-02 5.53424193e-01 -8.29207004e-01
2.90924883e-01 -4.36165570e-01 8.51540159e-01
3.56991575e-01 7.19543469e-02 9.31331180e-01
-1.16165361e-01 3.76094972e-01 9.19269484e-01
6.83579411e-01 1.72763546e-02 7.29670672e-01
8.23899165e-01 1.69525282e-02 -5.66483791e-01
-7.22493259e-01 -1.32946221e-01 -6.78476322e-01
-6.75439208e-01 -7.12096602e-01 -1.91574216e-01
4.83541102e-01 -8.50770313e-01 -2.05859854e-01
-6.97505662e-01 7.07583798e-01 1.13184800e-01
3.67371516e-01 8.45085928e-01 -3.88418207e-01
2.77499356e-01 -2.34876350e-01 -9.31573416e-01
-6.04850426e-02 -6.49846320e-01 7.57654168e-01
-1.90402125e-01 -8.61086530e-01 -4.71463614e-01
4.71017297e-03 -7.19756521e-01 -6.94211583e-01
-4.56813380e-01 4.75749607e-01 7.51653097e-01
8.17054289e-01 3.27422998e-01 4.74568795e-01
5.95786195e-01 -3.33441853e-01 7.30653072e-01
-1.06428958e-01 -5.95977367e-01 -7.95917967e-01
-4.42114701e-01 8.96487667e-01 -2.90604775e-02
7.24741996e-01 -5.21202689e-01 4.50661641e-01
9.77561797e-01 1.83847521e-01 1.02824224e-01
-3.52269379e-02 -4.93155812e-01 8.69226500e-01
-8.62877655e-01 -3.20268996e-01 -3.90986812e-01
-6.88394763e-01 4.41928213e-02 -7.23989683e-01
7.03306298e-01 6.91706801e-01 1.64017174e-01
-4.03603036e-02 -8.95545905e-02 -9.95164794e-01
4.03596690e-02 8.95550799e-02 -9.95164776e-01
-6.24185403e-01 5.17095065e-01 -5.85667501e-01
-5.31971983e-01 -4.36822058e-02 8.45633502e-01
-2.76087597e-01 7.47305699e-01 6.04407686e-01
-3.47155156e-01 8.04349181e-01 -4.82189419e-01
4.30690650e-01 6.95062091e-01 5.75667551e-01
7.15035107e-01 -3.49667952e-01 -6.05357995e-01
8.32209682e-02 9.95557158e-01 4.40469192e-02
-2.10335936e-01 -9.34440495e-01 -2.87367910e-01
-3.48214059e-01 6.86634524e-01 -6.38185904e-01
5.07243160e-01 -7.74690830e-01 -3.77570169e-01
7.22493063e-01 1.32945926e-01 -6.78476589e-01
-4.04150802e-01 1.13823325e-01 9.07581735e-01
-4.16737864e-01 -1.26268426e-01 -9.00215306e-01
9.62354395e-01 -2.66492717e-03 -2.71785665e-01
8.95340575e-01 -9.84295857e-02 -4.34370489e-01
-2.63169310e-01 2.49410077e-01 9.31952094e-01
4.04150746e-01 -1.13823416e-01 9.07581748e-01
-9.02526616e-01 -1.13862517e-01 -4.15309337e-01
1.80796908e-01 -6.69023358e-01 -7.20917217e-01
9.97944253e-01 -7.09179438e-03 6.36934042e-02
2.63169254e-01 -2.49410129e-01 9.31952096e-01
-4.16816294e-01 8.49214022e-01 3.24189897e-01
6.50754955e-01 3.05599313e-01 -6.95074390e-01
5.57134532e-01 -3.85902272e-01 -7.35310810e-01
-5.07243253e-01 7.74690879e-01 -3.77569944e-01
-6.65896277e-01 -6.49012705e-01 -3.67920340e-01
-8.89692657e-02 9.94648482e-01 -5.25258978e-02
4.42115102e-01 -8.96487468e-01 -2.90605080e-02
6.04179339e-01 -5.04452242e-01 6.16842003e-01
7.44800017e-02 -9.84541554e-01 1.58525542e-01
6.25077002e-01 5.66785672e-01 -5.36687798e-01
-2.47839592e-01 -9.58647510e-01 1.39893578e-01
-2.01672209e-01 -4.07229009e-01 8.90781181e-01
-7.08847396e-01 1.73190586e-01 6.83768274e-01
9.23949042e-01 -3.17529552e-01 2.13290257e-01
6.92603973e-01 3.61315283e-01 6.24299433e-01
-5.76047210e-01 -7.61952013e-01 2.95969869e-01
6.97506216e-01 -7.07583329e-01 1.13184311e-01
2.54988836e-01 9.03880250e-01 3.43482920e-01
-5.42482969e-01 -8.32131451e-01 1.15192233e-01
-1.74694051e-01 7.96417784e-01 -5.78966177e-01
7.37340479e-02 -2.50760609e-01 -9.65237947e-01
3.75333999e-01 9.05702189e-01 -1.97049031e-01
3.81650231e-01 4.07521320e-01 8.29619101e-01
-2.54921242e-01 8.59252364e-01 4.43508365e-01
-3.67371356e-01 -8.45086180e-01 -3.88417807e-01
5.29894666e-01 7.95180002e-01 -2.94789731e-01
4.69169534e-01 -2.19088966e-01 -8.55500816e-01
4.14276947e-01 5.62585285e-01 7.15451612e-01
7.17760298e-01 4.99385664e-01 4.85214556e-01
-8.17054321e-01 -3.27423152e-01 4.74568634e-01
8.78762465e-01 1.48920992e-01 4.53429358e-01
8.10227023e-01 -7.22666878e-03 5.86070644e-01
1.16165266e-01 -3.76094970e-01 9.19269497e-01
-8.04034571e-02 -7.81415732e-01 6.18808150e-01
2.10336295e-01 9.34440345e-01 -2.87368139e-01
5.55898953e-01 4.64290380e-01 -6.89501375e-01
9.11894566e-01 -4.07405731e-01 4.96867523e-02
1.06428521e-01 5.95977544e-01 -7.95917893e-01
6.75439613e-01 7.12096022e-01 -1.91574947e-01
-6.43865661e-01 7.26684932e-01 -2.39513026e-01
-1.80797600e-01 6.69023650e-01 -7.20916774e-01
-1.29712817e-01 -2.67276763e-01 -9.54850556e-01
2.54921793e-01 -8.59252306e-01 4.43508159e-01
9.57217646e-01 2.82853547e-01 -6.10603672e-02
-4.28730281e-01 -8.03308146e-01 4.13383067e-01
5.31971724e-01 4.36822448e-02 8.45633664e-01
7.27288487e-01 -3.58747977e-01 5.85107000e-01
9.41966966e-01 -3.12833440e-01 -1.21793729e-01
-1.84098758e-01 4.00224326e-01 -8.97735981e-01
6.29274431e-01 2.06077516e-01 7.49362584e-01
4.88278656e-01 3.09567850e-01 -8.15937066e-01
-7.67547353e-01 -1.79032361e-01 6.15481333e-01
-5.76354887e-01 -5.39972562e-01 6.13386890e-01
-7.78396274e-01 -4.93719935e-01 -3.87737829e-01
4.28730662e-01 8.03308027e-01 4.13382905e-01
-9.38736825e-08 -6.74659294e-08 9.99999022e-01
9.61220070e-01 8.07421760e-02 2.63697105e-01
-4.83540951e-01 8.50770427e-01 -2.05859741e-01
9.02526282e-01 1.13862007e-01 -4.15310205e-01
8.37317088e-01 4.43412242e-01 3.19820346e-01
8.87259685e-01 4.60025354e-01 -3.38672558e-02
4.16737436e-01 1.26268696e-01 -9.00215467e-01
3.27136212e-01 -8.91510847e-01 -3.13354305e-01
-7.22766743e-01 -6.07326241e-01 3.29791490e-01
-9.06673281e-02 -8.86634759e-01 4.53494600e-01
2.82912259e-01 6.20808690e-01 -7.31135181e-01
-4.54372112e-01 6.31665398e-01 6.28127042e-01
-8.18078858e-01 5.69200130e-01 8.22072673e-02
-6.04179360e-01 5.04452231e-01 6.16841990e-01
4.61512713e-01 -5.42730427e-01 -7.01748581e-01
-8.78762691e-01 -1.48921439e-01 4.53428772e-01
6.09682511e-01 -7.90792689e-01 -5.41688564e-02
8.22269542e-01 -1.94829380e-01 5.34708582e-01
-9.11894201e-01 4.07406481e-01 4.96873036e-02
-6.23259742e-02 -9.83593900e-01 -1.69289229e-01
7.98851634e-01 5.63591698e-01 -2.10240044e-01
9.10514174e-02 -8.34388593e-01 5.43603027e-01
-7.22546699e-01 6.28565043e-01 2.87804955e-01
2.10562789e-01 4.52321604e-01 -8.66643049e-01
3.87734980e-01 -9.09333139e-01 1.50912334e-01
-7.66614655e-02 1.78829254e-01 9.80887965e-01
-3.15078061e-01 -2.94687440e-01 -9.02156800e-01
-4.88278993e-01 -3.09567798e-01 -8.15936884e-01
8.06427661e-01 2.31275993e-01 -5.44230564e-01
2.89253183e-01 -5.34738920e-01 -7.93970047e-01
-8.10227314e-01 7.22645846e-03 5.86070245e-01
2.41816494e-01 -9.68966898e-01 5.12623844e-02
-3.86710097e-01 -4.71897177e-01 -7.92319320e-01
9.35479333e-01 -2.09511651e-01 -2.84576600e-01
-9.57217474e-01 -2.82854106e-01 -6.10604630e-02
-5.92438175e-01 6.50574903e-01 4.75150898e-01
9.17007971e-01 2.65194035e-01 2.97939463e-01
-2.41815751e-01 9.68967077e-01 5.12625294e-02
6.23265641e-02 9.83593869e-01 -1.69289197e-01
-3.86230188e-01 3.83467253e-01 -8.38916413e-01
-6.33355745e-01 2.18404540e-01 -7.42402458e-01
-7.98851257e-01 -5.63592359e-01 -2.10239703e-01
-9.46734343e-01 -2.04968279e-01 -2.48359766e-01
8.18079328e-01 -5.69199520e-01 8.22068097e-02
-8.59541251e-01 4.98108445e-01 -1.14354882e-01
-2.77500003e-01 2.34876778e-01 -9.31573115e-01
9.02037648e-02 9.62345260e-01 2.56426171e-01
-9.23948721e-01 3.17529961e-01 2.13291040e-01
4.68353772e-01 2.30775109e-01 8.52869231e-01
-5.81679057e-01 7.51064093e-01 3.12332502e-01
-2.32561718e-01 -5.63129378e-01 7.92968347e-01
8.37425526e-01 -4.84255511e-01 2.53405984e-01
-7.49135470e-01 6.57116245e-01 -8.36328346e-02
2.54229642e-01 6.99104676e-01 6.68295321e-01
1.10551021e-01 -7.10571420e-01 6.94885148e-01
-2.63832010e-01 -8.13550923e-01 5.18195476e-01
-2.89253831e-01 5.34739225e-01 -7.93969606e-01
4.16817083e-01 -8.49213657e-01 3.24189836e-01
-7.17760255e-01 -4.99385695e-01 4.85214586e-01
9.06679193e-02 8.86634730e-01 4.53494540e-01
1.60917641e-01 -7.58088422e-02 -9.84053076e-01
1.29915449e-01 -9.61649774e-01 -2.41561919e-01
3.15077561e-01 2.94687684e-01 -9.02156895e-01
8.30015987e-01 -3.74392776e-01 4.13403800e-01
7.71961338e-01 -5.74750585e-01 -2.71547396e-01
-9.77561976e-01 -1.83847021e-01 1.02823419e-01
-6.50755123e-01 -3.05599520e-01 -6.95074141e-01
5.33599127e-01 -4.38591822e-02 -8.44600494e-01
8.89700307e-02 -9.94648400e-01 -5.25261468e-02
4.56813350e-01 -4.75749516e-01 7.51653172e-01
-9.10509437e-02 8.34388551e-01 5.43603173e-01
6.58644081e-01 7.52402773e-01 -8.83514679e-03
-3.40140829e-01 -7.52995878e-01 -5.63296126e-01
-9.20218250e-01 -3.67348665e-01 1.35103907e-01
8.59541496e-01 -4.98107919e-01 -1.14355332e-01
-7.86775279e-01 -6.16806347e-01 -2.31222025e-02
1.90402100e-01 8.61086443e-01 -4.71463785e-01
-1.60918294e-01 7.58093215e-02 -9.84052932e-01
7.62125552e-01 -4.68881054e-01 -4.46448286e-01
9.08532923e-01 -3.09693878e-02 4.16662945e-01
3.86229499e-01 -3.83466956e-01 -8.38916866e-01
-5.10064943e-01 -7.17908913e-01 -4.73752543e-01
7.78396527e-01 4.93719364e-01 -3.87738049e-01
2.33406749e-01 9.69368717e-01 -7.64573721e-02
-8.06427852e-01 -2.31276216e-01 -5.44230186e-01
-4.30690439e-01 -6.95062163e-01 5.75667621e-01
6.04851456e-02 6.49846344e-01 7.57654140e-01
-2.97496390e-01 6.05429340e-01 7.38207132e-01
7.49135819e-01 -6.57115798e-01 -8.36332206e-02
9.46734357e-01 2.04967601e-01 -2.48360274e-01
-8.87259388e-01 -4.60025938e-01 -3.38671064e-02
7.82373160e-01 -1.70728778e-01 -5.98953332e-01
-5.68526380e-01 1.46723124e-01 8.09474210e-01
1.60958087e-01 -8.94037940e-01 -4.18078310e-01
-2.83659521e-01 -2.43456301e-01 9.27504443e-01
-2.90924965e-01 4.36165550e-01 8.51540142e-01
2.32973389e-01 -9.36257387e-01 2.62954350e-01
3.40140657e-01 7.52995717e-01 -5.63296446e-01
-7.28172500e-01 -4.07731705e-01 -5.50927167e-01
6.88394211e-01 -4.41930123e-02 -7.23990196e-01
3.47155049e-01 -8.04348959e-01 -4.82189865e-01
-6.09682119e-01 7.90793018e-01 -5.41684575e-02
3.86709708e-01 4.71897211e-01 -7.92319489e-01
-1.43419136e-01 -1.22256206e-01 9.82080674e-01
8.69405869e-01 -4.00090130e-01 -2.89934285e-01
6.39377137e-02 2.96549242e-01 9.52873891e-01
1.43418893e-01 1.22256117e-01 9.82080721e-01
-7.30566121e-02 9.27995829e-01 3.65357030e-01
-3.87734327e-01 9.09333431e-01 1.50912252e-01
-8.23899507e-01 -1.69531494e-02 -5.66483274e-01
4.07400698e-01 8.83095555e-01 2.32736884e-01
8.62877763e-01 3.20268465e-01 -3.90987009e-01
-8.43231886e-01 2.89759830e-01 -4.52769382e-01
-9.69581841e-01 1.08371335e-01 2.19468170e-01
2.01672052e-01 4.07228860e-01 8.90781285e-01
8.27756939e-01 5.39466888e-01 1.54251824e-01
-6.83579677e-01 -1.72763336e-02 7.29670424e-01
-8.91553468e-01 -3.96471647e-01 -2.18959069e-01
-3.81650384e-01 -4.07521332e-01 8.29619024e-01
-3.75333549e-01 -9.05702470e-01 -1.97048593e-01
2.89808598e-01 -9.47467030e-01 -1.35342039e-01
1.32490153e-01 -5.59377685e-01 8.18255073e-01
-1.60957999e-01 8.94038148e-01 -4.18077899e-01
2.80930140e-02 9.31696136e-01 -3.62151628e-01
2.63832414e-01 8.13550826e-01 5.18195425e-01
9.69581871e-01 -1.08371075e-01 2.19468166e-01
7.22547208e-01 -6.28564644e-01 2.87804547e-01
-2.33406123e-01 -9.69368885e-01 -7.64571448e-02
2.76087809e-01 -7.47305685e-01 6.04407604e-01
2.47840336e-01 9.58647336e-01 1.39893459e-01
9.75809924e-01 -2.12837304e-01 4.99517334e-02
-6.29274697e-01 -2.06077412e-01 7.49362389e-01
-4.68354048e-01 -2.30775108e-01 8.52869080e-01
-5.53108840e-01 8.21841786e-01 1.36551908e-01
-8.95341044e-01 9.84284564e-02 -4.34369778e-01
-2.54229426e-01 -6.99104776e-01 6.68295297e-01
-2.36989993e-01 -1.05167852e-01 -9.65803994e-01
-7.24742004e-01 5.21202558e-01 4.50661780e-01
-2.54988103e-01 -9.03880388e-01 3.43483100e-01
-1.32490186e-01 5.59377658e-01 8.18255087e-01
-5.09193119e-01 6.69531452e-01 -5.40787445e-01
-4.54499051e-01 -6.17127735e-01 -6.42327974e-01
4.32903642e-01 -7.59301023e-01 4.85855372e-01
-4.32903340e-01 7.59301189e-01 4.85855383e-01
9.07581748e-03 8.43530173e-01 -5.37006078e-01
5.76354911e-01 5.39972554e-01 6.13386875e-01
-3.55829447e-01 5.92002482e-02 -9.32674948e-01
-8.32201628e-02 -9.95557227e-01 4.40468526e-02
3.48213476e-01 -6.86634321e-01 -6.38186440e-01
5.42483591e-01 8.32131144e-01 1.15191528e-01
5.79888277e-01 1.37600207e-01 -8.02992739e-01
9.91072773e-01 9.24030119e-02 -9.61073874e-02
-5.55899148e-01 -4.64290587e-01 -6.89501077e-01
-5.33599711e-01 4.38593201e-02 -8.44600119e-01
-2.89808153e-01 9.47467209e-01 -1.35341746e-01
1.68606703e-01 7.49651680e-01 -6.39996399e-01
-4.61513343e-01 5.42730522e-01 -7.01748094e-01
-5.46343303e-01 -3.91095543e-01 7.40642845e-01
2.32561677e-01 5.63129267e-01 7.92968439e-01
6.33355189e-01 -2.18404728e-01 -7.42402877e-01
-4.14276958e-01 -5.62585321e-01 7.15451577e-01
-9.75809593e-01 2.12838736e-01 4.99521037e-02
-5.86419810e-01 -6.64576208e-01 4.63086778e-01
-4.69170117e-01 2.19089186e-01 -8.55500440e-01
5.10064968e-01 7.17908631e-01 -4.73752946e-01
-5.95786156e-01 3.33441886e-01 7.30653089e-01
-8.69405868e-01 4.00090207e-01 -2.89934182e-01
-9.97944278e-01 7.09324661e-03 6.36928454e-02
-6.25077010e-01 -5.66786028e-01 -5.36687413e-01
7.66612791e-02 -1.78829378e-01 9.80887957e-01
4.54498934e-01 6.17127563e-01 -6.42328223e-01
-7.82373726e-01 1.70728297e-01 -5.98952730e-01
-7.71961417e-01 5.74750664e-01 -2.71547004e-01
-5.25302516e-01 -8.44567544e-01 -1.03745517e-01
3.52269040e-02 4.93155849e-01 8.69226481e-01
6.65896503e-01 6.49012153e-01 -3.67920905e-01
-6.39379617e-02 -2.96549294e-01 9.52873858e-01
-6.58643496e-01 -7.52403294e-01 -8.83434006e-03
6.24184857e-01 -5.17095140e-01 -5.85668016e-01
-3.27136032e-01 8.91511048e-01 -3.13353923e-01
6.53573335e-01 -6.32212338e-01 -4.16113289e-01
5.09192613e-01 -6.69531457e-01 -5.40787915e-01
2.36989431e-01 1.05168297e-01 -9.65804083e-01
-7.62125890e-01 4.68880749e-01 -4.46448031e-01
5.53109468e-01 -8.21841427e-01 1.36551517e-01
2.17519964e-01 -5.53782191e-02 9.74482638e-01
9.20218141e-01 3.67348845e-01 1.35104166e-01
2.97496398e-01 -6.05429342e-01 7.38207126e-01
9.87129262e-01 -1.11912442e-01 -1.14243816e-01
2.40157138e-02 4.17981543e-01 -9.08139004e-01
5.92438295e-01 -6.50574902e-01 4.75150749e-01
5.46343176e-01 3.91095589e-01 7.40642915e-01
-8.37317165e-01 -4.43412172e-01 3.19820239e-01
-2.40164158e-02 -4.17981140e-01 -9.08139171e-01
-2.80928106e-02 -9.31696097e-01 -3.62151743e-01
-6.53573708e-01 6.32212284e-01 -4.16112785e-01
1.29712162e-01 2.67277180e-01 -9.54850528e-01
-2.82912550e-01 -6.20808669e-01 -7.31135086e-01
-4.38631954e-01 3.00465178e-01 8.46948068e-01
-9.62354808e-01 2.66433282e-03 -2.71784210e-01
-5.79888583e-01 -1.37600186e-01 -8.02992522e-01
1.84098066e-01 -4.00223896e-01 -8.97736314e-01
-9.87129118e-01 1.11913892e-01 -1.14243637e-01
-3.93468942e-01 -9.19120721e-01 1.99812815e-02
-9.17008154e-01 -2.65194003e-01 2.97938925e-01
3.93469538e-01 9.19120476e-01 1.99808648e-02
-9.91072829e-01 -9.24029605e-02 -9.61068594e-02
-7.37347426e-02 2.50761076e-01 -9.65237773e-01
-9.02030513e-02 -9.62345343e-01 2.56426106e-01
-7.15035575e-01 3.49667597e-01 -6.05357648e-01
-2.10563339e-01 -4.52321420e-01 -8.66643010e-01
2.83659312e-01 2.43456171e-01 9.27504541e-01
6.43865739e-01 -7.26684749e-01 -2.39513369e-01
-2.32972729e-01 9.36257522e-01 2.62954458e-01
-7.27288488e-01 3.58747768e-01 5.85107127e-01
