1.01127548e-01 -3.30482968e-01 9.38377618e-01
6.25565812e-02 9.61697410e-01 -2.66882667e-01
-1.13760170e-01 -6.98571946e-01 7.06437498e-01
-9.90533843e-01 3.87668554e-02 -1.31679492e-01
-2.41949483e-01 -1.55017559e-01 9.57824784e-01
4.82246588e-01 -8.19086430e-01 3.10699999e-01
7.65264649e-01 -2.06302068e-01 -6.09762686e-01
-5.23903926e-01 -7.16396093e-01 -4.60761089e-01
4.98716752e-01 8.66354966e-01 2.66831222e-02
-7.38878882e-01 6.73753755e-01 1.06887947e-02
9.36076352e-01 -1.83429288e-01 -3.00192454e-01
9.33197224e-01 -3.50767327e-01 7.81359852e-02
8.29209657e-01 5.29410894e-01 1.79266091e-01
-2.03648811e-01 7.48161654e-01 6.31491253e-01
5.48108715e-02 9.57647630e-01 2.82679305e-01
-7.10797236e-01 1.29980100e-01 6.91282306e-01
-9.84150225e-01 -1.46454609e-01 -9.99938274e-02
-9.41659791e-01 -3.32480735e-01 -5.22734356e-02
-7.69491853e-01 -6.19361807e-01 -1.55795540e-01
4.40784887e-01 7.17740489e-01 5.39033996e-01
4.61557952e-01 -6.54406906e-01 -5.98929192e-01
3.89648583e-01 8.98816575e-01 2.00758040e-01
-9.18914946e-02 -3.20272641e-02 9.95253087e-01
6.54554467e-01 9.95539149e-02 -7.49432475e-01
9.71507664e-01 2.35238917e-01 2.89193451e-02
-1.27174948e-02 -9.09252821e-01 4.16047910e-01
4.45484173e-01 2.11003839e-01 8.70069262e-01
7.29914414e-01 9.97706989e-02 6.76217680e-01
-1.31531068e-01 9.71285831e-01 1.98252979e-01
-4.15063237e-02 8.37185187e-01 -5.45343892e-01
-2.16303327e-01 -3.61722175e-01 9.06845128e-01
8.61779181e-01 4.10541067e-01 -2.97983397e-01
3.00171917e-02 5.52399390e-01 -8.33040068e-01
-1.94856896e-01 -2.99085580e-01 -9.34119611e-01
5.57271119e-01 -4.66168187e-01 6.87120736e-01
-5.75371400e-02 3.55988787e-01 9.32716754e-01
-1.44766924e-01 9.69024201e-01 -2.00090027e-01
-1.71198498e-01 8.43079305e-02 -9.81623471e-01
-1.73945363e-01 -5.48136387e-01 8.18099983e-01
-6.65289598e-01 -5.95961748e-01 -4.49687516e-01
1.11206778e-01 8.93123068e-01 -4.35850908e-01
8.81019219e-01 8.89518828e-02 -4.64643931e-01
4.35577420e-01 -6.24431086e-01 6.48349215e-01
6.52517447e-01 7.57236573e-01 2.85486327e-02
-3.50144825e-01 -4.66671920e-01 8.12166236e-01
4.57130574e-01 4.00077161e-01 7.94335910e-01
7.88179562e-01 6.15218264e-01 1.67528561e-02
5.93466668e-01 -8.04135124e-01 -3.41090760e-02
1.56605709e-02 1.86268311e-01 -9.82374923e-01
-4.26744153e-01 8.08789586e-01 -4.04660530e-01
2.37626400e-01 -6.29468718e-01 7.39798046e-01
5.54876029e-01 -7.92745501e-01 -2.52322959e-01
4.80005070e-01 6.04278852e-01 -6.35959215e-01
6.62748286e-02 -9.67268088e-01 -2.44947536e-01
-7.40509275e-01 -4.86725830e-01 4.63402950e-01
5.59143052e-01 -4.76577321e-01 -6.78405343e-01
9.23246912e-01 3.37641206e-01 1.83341898e-01
-4.92206827e-01 5.77563109e-01 -6.51271552e-01
-3.22008738e-01 -9.01707999e-01 -2.88499866e-01
7.08434577e-01 -3.93834178e-01 -5.85675554e-01
3.36999296e-01 -2.26756859e-01 -9.13791013e-01
6.91779208e-01 -7.02820362e-01 -1.65785545e-01
1.40545724e-01 -8.42526632e-01 5.19994316e-01
6.01531460e-01 7.30914046e-01 -3.22375967e-01
2.91261133e-01 -7.46155393e-01 5.98679792e-01
2.81208672e-01 -7.11255567e-01 -6.44233969e-01
-5.69570427e-01 3.56987939e-02 8.21166044e-01
7.19549161e-02 -1.20285176e-01 9.90127497e-01
-3.17287899e-01 9.42854326e-01 1.01759189e-01
3.53008750e-01 3.55023905e-01 -8.65646993e-01
-6.17661275e-01 -4.54920758e-01 6.41513699e-01
-4.67888638e-01 8.62269513e-01 1.93835021e-01
-4.05086900e-01 7.38136640e-01 5.39498662e-01
-1.47958767e-01 2.75800526e-01 -9.49759900e-01
-4.37458589e-01 -7.06419410e-01 5.56416832e-01
-9.00793504e-01 -1.13438679e-01 4.19167590e-01
5.01271743e-01 2.26026251e-01 -8.35248781e-01
-5.50039639e-02 8.29434951e-01 5.55888857e-01
4.69307052e-01 7.36675814e-01 -4.86889620e-01
-6.20185388e-01 -7.74312570e-01 -1.25733823e-01
7.19014003e-01 2.87630494e-01 6.32682734e-01
-4.52204203e-01 -8.83899545e-01 -1.19297002e-01
7.67450799e-01 -4.77556209e-01 -4.27738015e-01
-8.20031512e-01 2.10706929e-01 5.32118345e-01
1.00789742e-02 -9.06626973e-01 -4.21812090e-01
-4.75667078e-01 8.79610058e-01 -5.27082106e-03
-8.53989534e-01 -5.20092096e-01 -1.43167769e-02
9.88796282e-01 -7.07830228e-02 -1.31424336e-01
2.59552676e-01 -1.98297796e-02 9.65524702e-01
-5.74330503e-01 6.69900229e-01 4.70508208e-01
3.44939420e-01 5.44265638e-01 -7.64718028e-01
-9.31652795e-02 9.20479815e-01 -3.79524372e-01
-7.39276902e-02 -2.46459808e-01 9.66328385e-01
8.40416588e-01 -2.95503728e-01 -4.54288763e-01
-5.09992387e-01 -3.66609973e-01 7.78140761e-01
-9.28872123e-01 3.21676631e-01 1.83630913e-01
-4.44493053e-01 8.13722624e-01 3.74541882e-01
2.95070059e-02 -6.03064501e-01 7.97145342e-01
-3.94865039e-01 -9.16642277e-01 6.20249527e-02
9.12681953e-01 2.24837741e-01 3.41262322e-01
1.89309357e-01 -9.19487199e-01 3.44534115e-01
5.70784405e-01 -1.31999478e-01 8.10419847e-01
-4.21041391e-01 1.35201088e-01 8.96907722e-01
4.36131130e-01 2.14865966e-02 8.99626019e-01
2.95222504e-01 3.47136678e-01 8.90134337e-01
-2.71338395e-01 -9.55865950e-01 -1.12670272e-01
-6.63891523e-01 4.96635037e-01 5.59107425e-01
2.36053025e-01 -2.03797404e-01 9.50128482e-01
-7.67575928e-01 1.11974980e-01 -6.31101717e-01
-2.56735678e-01 -7.78273024e-01 5.73040992e-01
-6.50366305e-01 5.07365817e-01 -5.65335860e-01
4.45086853e-01 -8.87101004e-01 -1.22265491e-01
7.20440430e-01 -6.91166523e-01 5.70431515e-02
-4.63094326e-01 8.61343008e-01 -2.08885007e-01
-2.99107242e-01 -5.96292378e-01 -7.44963359e-01
-9.62838313e-01 2.20702306e-01 -1.55668876e-01
1.55491614e-01 -2.88242333e-01 -9.44849084e-01
-7.24375715e-01 3.14182089e-01 -6.13653213e-01
-7.85504171e-01 -5.25255892e-01 -3.27244258e-01
-6.58430446e-01 -1.92577201e-01 -7.27587641e-01
-5.37857272e-02 -8.10383032e-01 -5.83426293e-01
9.72606442e-01 1.26979571e-01 1.94713506e-01
7.39409030e-01 3.45820534e-01 -5.77653980e-01
-7.98931636e-01 -5.79338290e-01 1.61474395e-01
8.91449411e-02 7.61793295e-02 9.93100513e-01
-5.54648411e-01 4.09612725e-01 7.24280129e-01
-5.65260092e-01 -8.23565399e-01 4.71132193e-02
-3.88811844e-01 -8.24457408e-01 4.11209816e-01
-9.83228529e-01 1.79344145e-01 3.31199558e-02
3.79564182e-01 -5.00814205e-01 7.77891171e-01
1.22174272e-01 7.68865875e-01 6.27629540e-01
4.95436940e-01 4.25757395e-01 -7.57149102e-01
-7.24415489e-01 6.59920840e-01 -1.99317206e-01
-3.00509684e-02 5.30332401e-01 8.47256700e-01
2.46568806e-01 9.09109105e-01 3.35745798e-01
9.52573950e-01 1.10848897e-02 -3.04106887e-01
-9.29859732e-01 -2.56890674e-01 2.63375829e-01
1.33541361e-01 4.48197729e-01 8.83903205e-01
-3.18128935e-01 9.42396392e-01 -1.03364086e-01
1.84445173e-01 -9.74585019e-01 1.27132820e-01
-7.11209945e-01 -6.17698638e-01 3.35599699e-01
-3.45658794e-01 6.39979019e-01 6.86255392e-01
-4.17920988e-01 -6.68366231e-01 -6.15327910e-01
-9.08335408e-01 -3.98337957e-01 1.27485123e-01
8.47029337e-01 -5.22542759e-01 9.74170766e-02
6.05323121e-01 -5.84915710e-01 5.39867027e-01
-3.06205948e-01 3.52182169e-01 -8.84424751e-01
8.34062873e-01 -4.81976984e-02 5.49559604e-01
-1.67388349e-01 4.69565119e-01 -8.66886061e-01
9.67774323e-02 8.83393493e-01 4.58530866e-01
-6.31024709e-02 -8.18617538e-01 5.70860366e-01
-2.13937005e-02 -9.97285192e-01 7.04501446e-02
-3.62283120e-01 -2.11089567e-01 -9.07850730e-01
-8.49389697e-01 -3.52582940e-01 -3.92711139e-01
-1.59261790e-02 -1.99366799e-01 -9.79796086e-01
9.33186248e-01 -2.61426365e-01 2.46616224e-01
-8.52683907e-01 -3.03215214e-01 4.25428271e-01
-2.46777557e-01 2.49014081e-01 9.36531718e-01
8.38418825e-01 4.30300179e-01 3.34508858e-01
8.39747124e-01 5.23167581e-01 -1.45333376e-01
7.08423567e-01 6.90313004e-01 -1.46988012e-01
6.50967433e-01 -2.84332012e-01 7.03843553e-01
9.25515247e-01 3.15081333e-02 3.77397422e-01
9.00187469e-01 -1.60505648e-01 4.04845918e-01
4.74296340e-01 -3.52516447e-01 -8.06706963e-01
-9.53166216e-01 -6.99878398e-02 -2.94237382e-01
-5.59602839e-01 -7.35053162e-01 3.82805097e-01
-3.64854926e-01 -8.11717185e-01 -4.56065271e-01
7.45052859e-01 5.93815001e-01 -3.03778829e-01
-2.13093566e-01 -9.74653709e-01 6.81165588e-02
9.33218592e-01 2.07762709e-01 -2.93153431e-01
5.85177141e-01 7.16789600e-01 3.79184742e-01
-3.72876952e-01 7.24142671e-01 -5.80156581e-01
2.04496822e-01 -9.04073589e-01 -3.75275286e-01
-6.12702133e-01 7.83642384e-01 -1.02476602e-01
-4.61529844e-01 -4.89415663e-01 -7.39907216e-01
-1.25444443e-01 -6.80802268e-01 -7.21645396e-01
8.05272824e-01 -5.88373809e-01 -7.31559655e-02
-7.32766272e-01 -4.36633907e-01 -5.21923553e-01
5.93636707e-01 2.52911589e-01 7.63957306e-01
3.40505271e-01 -8.01858328e-01 -4.90998265e-01
-6.96525386e-01 -6.10047809e-02 7.14933080e-01
1.10800025e-02 7.18080610e-01 -6.95873078e-01
-1.88016671e-01 -1.07758585e-01 -9.76237142e-01
-5.08672192e-01 8.42002361e-02 -8.56833670e-01
-7.92982335e-02 -9.91170967e-01 -1.06258156e-01
1.22624402e-02 3.83482592e-01 -9.23467659e-01
8.57722572e-01 -4.40941787e-01 2.64351886e-01
-7.91488136e-01 3.95206904e-01 4.66216036e-01
7.10025133e-01 -4.16420722e-01 5.67853148e-01
4.54699945e-01 5.72710532e-01 6.82092816e-01
9.72080852e-01 -7.17391730e-02 2.23411000e-01
-8.40816722e-01 -4.51223042e-01 2.99037685e-01
-6.99782988e-01 3.18469535e-01 6.39437252e-01
6.27348884e-01 -2.81648481e-01 -7.26022425e-01
-7.19296645e-01 5.77586407e-01 3.86012975e-01
-1.70322434e-01 -5.02173558e-01 -8.47828091e-01
-6.07530734e-01 7.37984626e-01 2.93743476e-01
-7.84789018e-01 -7.93480709e-02 -6.14662828e-01
-8.94214646e-01 2.66743508e-01 3.59482073e-01
3.24115961e-01 7.09430914e-01 -6.25826307e-01
3.12357366e-01 -3.59795895e-01 8.79191839e-01
4.75341525e-01 -8.74485060e-01 9.65680369e-02
-1.45097552e-01 -9.57374790e-01 2.49757085e-01
9.59510207e-01 -2.56229226e-01 -1.16992142e-01
-3.09777450e-01 6.06209006e-01 -7.32495849e-01
-3.40776330e-02 6.95861070e-01 7.17367341e-01
-4.69752071e-01 -5.57833123e-01 6.84217270e-01
3.20192491e-01 -9.47342913e-01 4.14699974e-03
-6.16333615e-01 7.80694338e-01 1.03197249e-01
-9.39047276e-01 1.19308855e-01 -3.22421558e-01
-5.05344699e-01 -3.04005985e-01 -8.07593691e-01
-4.95778268e-01 -8.37295255e-01 2.30518812e-01
-1.33180835e-01 6.21426694e-01 -7.72070919e-01
2.11271104e-01 -5.97284981e-01 -7.73702566e-01
-9.98148328e-01 -1.00878804e-02 5.99788834e-02
-1.87950861e-01 7.47917361e-01 -6.36628464e-01
3.34824127e-02 9.95560291e-01 8.79758393e-02
6.24356751e-01 -5.77023594e-01 -5.26519538e-01
-3.35135903e-01 -4.05089451e-01 -8.50639156e-01
-9.75500237e-01 -2.01024885e-01 8.93719088e-02
-7.45768660e-01 -3.36963578e-01 5.74702522e-01
-5.39806716e-01 -1.59744773e-01 8.26491763e-01
-3.02774590e-01 -6.42484037e-01 7.03945914e-01
-2.23744666e-01 4.28779118e-01 8.75263359e-01
-6.89763045e-01 6.03931294e-01 -3.99368041e-01
1.84178044e-01 2.82667771e-01 -9.41370897e-01
6.22900133e-01 6.19468179e-01 -4.77761865e-01
-4.04906602e-01 -6.02467428e-02 9.12370194e-01
-3.67642641e-02 -4.45125461e-01 8.94712178e-01
4.92360216e-01 -3.26895432e-01 8.06671892e-01
3.26080485e-01 9.45107773e-01 2.10744632e-02
-5.43937078e-01 6.78580842e-01 -4.93621014e-01
-8.80224000e-01 -1.70083923e-01 -4.43031681e-01
5.15601517e-01 -7.37819247e-01 -4.35634997e-01
1.82477410e-01 6.41524310e-01 -7.45084224e-01
7.17805488e-01 4.67565905e-01 5.15885326e-01
6.31105813e-01 2.90524457e-01 -7.19237608e-01
3.47855613e-01 1.60545884e-01 -9.23700817e-01
-6.57889766e-01 1.15942416e-03 -7.53113797e-01
1.54585096e-01 7.89318300e-01 -5.94207007e-01
-9.33199732e-01 -2.57419190e-01 -2.50745114e-01
7.45436114e-01 -5.25579554e-01 4.09988228e-01
2.62735829e-01 -9.45975903e-01 -1.89996687e-01
-7.83357193e-01 4.16411750e-01 -4.61468813e-01
-4.11284362e-01 3.18246765e-01 8.54144666e-01
9.84173100e-01 -1.67808054e-01 5.69566330e-02
-3.24462639e-01 -9.13372789e-01 2.45911544e-01
3.31566689e-01 -8.38779543e-01 4.31869154e-01
-3.28600805e-02 -3.87925471e-01 -9.21105235e-01
5.98282789e-01 4.40500885e-01 6.69340435e-01
7.24253617e-01 5.85803969e-01 3.63718347e-01
7.87111040e-01 -2.33097640e-01 5.71070110e-01
-5.87960186e-01 7.48742705e-01 -3.06085257e-01
2.74529545e-01 8.14457041e-01 5.11168946e-01
6.19798853e-01 4.83555082e-01 -6.18082272e-01
-5.14766928e-01 5.77603025e-01 6.33552889e-01
7.74461635e-01 1.65437302e-01 -6.10607236e-01
8.85415001e-01 -3.68813279e-01 -2.82873667e-01
1.09360117e-01 2.67844337e-01 9.57234984e-01
-3.84913008e-01 4.87177127e-01 7.83900302e-01
-4.80921591e-01 2.76387490e-01 -8.32061062e-01
-5.99158545e-01 -6.08011428e-01 5.20892799e-01
2.01233175e-01 9.68045253e-01 1.49648553e-01
8.97987259e-01 -4.29300547e-01 -9.65404728e-02
-8.77855662e-01 -4.38026223e-01 -1.93653521e-01
6.24973582e-01 -6.87042385e-01 3.70647791e-01
1.72213197e-01 -1.04792719e-01 -9.79470500e-01
-6.55981408e-01 -7.29313585e-01 1.94392735e-01
-5.20475803e-01 -1.10243711e-01 -8.46730193e-01
1.31075057e-01 -4.62984383e-01 -8.76621664e-01
5.90483185e-01 6.02427830e-01 5.37038772e-01
-8.51959945e-01 5.12527461e-01 1.07143966e-01
1.69626763e-03 -5.81871261e-01 -8.13279410e-01
4.24678233e-01 8.23765137e-01 3.75579717e-01
4.11040495e-01 -1.69977974e-01 8.95629369e-01
8.19897529e-01 3.14643425e-01 4.78296714e-01
-8.79320768e-01 1.93367416e-02 -4.75837428e-01
9.83401152e-01 1.26018057e-01 -1.30547080e-01
2.51717263e-01 9.23666536e-01 -2.88929467e-01
3.93066920e-01 -5.45357978e-01 -7.40326740e-01
-1.33124915e-01 -9.50352332e-01 -2.81260304e-01
3.89838128e-01 -8.64627728e-01 -3.16930190e-01
8.78138836e-01 -1.04023501e-01 -4.66960754e-01
3.01450413e-01 5.24508210e-01 7.96252773e-01
5.11340488e-01 3.26653554e-02 -8.58758077e-01
-8.34296444e-01 5.45060987e-01 -8.28145966e-02
-7.99353481e-01 -1.58166808e-01 5.79668690e-01
-9.00998208e-01 3.96722023e-01 -1.75539369e-01
-8.23878236e-01 2.51953831e-02 5.66205431e-01
-9.67222330e-01 1.29514428e-01 2.18417624e-01
-2.48946556e-01 -7.57883954e-01 -6.03023469e-01
-1.59110090e-01 9.87247834e-01 5.17697914e-03
1.91165804e-01 9.76748895e-01 -9.70498618e-02
-3.83376186e-01 -2.67328129e-01 8.84056881e-01
-2.56457573e-01 8.43845220e-01 4.71333186e-01
6.70771682e-01 -6.50830587e-01 -3.55647296e-01
8.37537226e-01 -3.44621614e-01 4.23989160e-01
-1.90845069e-01 5.94536100e-01 7.81091862e-01
4.76074462e-01 -7.28380867e-01 4.92760703e-01
-7.43417845e-01 6.37171465e-01 2.03328520e-01
8.98701785e-02 -7.36061140e-01 6.70921420e-01
7.83965738e-01 -1.92694333e-02 -6.20506024e-01
-7.72912528e-01 -2.63358966e-01 -5.77276640e-01
-2.42790937e-01 8.43651303e-01 -4.78859694e-01
1.72950200e-01 -4.90773429e-01 8.53948454e-01
-8.89065929e-01 3.07826812e-01 -3.38828515e-01
5.93698767e-01 6.15926328e-02 8.02326249e-01
-1.01852668e-01 9.16838203e-01 3.86049556e-01
4.38046417e-01 8.38806597e-01 -3.23296415e-01
-7.25223069e-01 -6.88288605e-01 1.75784691e-02
7.83505870e-02 -7.17959147e-01 -6.91661764e-01
9.98910234e-01 2.57739840e-02 3.89179806e-02
1.35018314e-01 6.20568867e-01 7.72440342e-01
1.81605594e-01 8.50784018e-02 -9.79684986e-01
1.46465427e-01 -8.25873425e-01 -5.44500514e-01
4.00951915e-02 -9.68659127e-01 2.45133357e-01
-3.36236991e-01 1.67936439e-01 -9.26684066e-01
2.92966832e-01 6.83551837e-01 6.68526278e-01
-8.38892909e-01 4.60674889e-01 2.89891351e-01
1.25139066e-01 -9.90271763e-01 -6.08358301e-02
3.86870088e-01 9.09309854e-01 -1.53260175e-01
7.55736460e-01 4.78150779e-01 -4.47477259e-01
2.98943294e-01 8.34388924e-01 -4.63065743e-01
-9.30460820e-01 3.66357875e-01 4.94619754e-03
3.39942657e-01 -9.13470943e-01 2.23626009e-01
-2.93114025e-01 9.07101241e-01 -3.02080903e-01
-9.67357754e-01 -6.23146606e-02 2.45631569e-01
7.48971690e-01 -6.18102008e-01 2.38727169e-01
9.37911513e-03 9.95799034e-01 -9.10915464e-02
-2.90773953e-01 9.10816484e-01 2.93026226e-01
-6.29408980e-01 -3.78530859e-01 -6.78644864e-01
1.94789867e-01 4.65067897e-01 -8.63580144e-01
-6.54222300e-01 -2.51590282e-01 7.13227741e-01
-4.97768912e-01 -8.16459000e-01 -2.92608843e-01
-8.44465844e-01 2.12719085e-01 -4.91557208e-01
-5.74105477e-01 2.27734020e-01 7.86472470e-01
3.08429612e-01 -4.13720148e-01 -8.56567394e-01
8.99523938e-01 4.36455536e-01 1.90862915e-02
6.54617107e-01 -9.10011560e-02 -7.50464235e-01
3.50254720e-01 -3.51376922e-02 -9.35995973e-01
-4.07744694e-01 4.63931270e-01 -7.86456282e-01
-5.72330462e-01 -5.52910237e-01 -6.05580676e-01
8.41657112e-01 1.35327011e-01 5.22780859e-01
-7.81485923e-02 1.68219125e-01 9.82646372e-01
7.12827700e-01 -9.04960223e-02 6.95475711e-01
9.33794125e-01 3.30150417e-01 -1.37950649e-01
8.00637935e-01 -5.41784486e-01 -2.55829312e-01
-8.09219331e-01 5.09077988e-01 -2.93264792e-01
-2.54879055e-01 5.62281898e-02 9.65336009e-01
-9.14008845e-01 7.69951683e-02 3.98319682e-01
7.05010399e-01 6.80437668e-01 1.99914686e-01
5.03848163e-01 -1.60376283e-01 -8.48774279e-01
-6.35242050e-01 1.99866670e-01 -7.46003873e-01
-6.54753897e-01 -6.97325953e-01 -2.91604225e-01
2.74104238e-01 1.64516614e-01 9.47523178e-01
8.51396017e-01 2.80839871e-01 -4.43007064e-01
-1.78848107e-03 -8.33388204e-03 -9.99964375e-01
-5.78971621e-01 3.98132850e-01 -7.11535839e-01
-2.05487016e-01 -8.83370793e-01 4.21223611e-01
-1.83798178e-01 -8.74192034e-01 -4.49450748e-01
-3.55953167e-01 -2.05556892e-02 -9.34278274e-01
5.57034581e-01 8.03858235e-01 2.08627488e-01
5.58501927e-01 8.15374242e-01 -1.52453219e-01
6.12309476e-01 -7.68517601e-01 1.85625860e-01
