2.05719589e-01 7.41376425e-01 6.38780215e-01
9.53812206e-01 -3.00383834e-01 -3.53282410e-03
8.07268969e-01 -3.06347831e-01 -5.04448394e-01
7.49373457e-01 -1.57035576e-01 -6.43256863e-01
7.97521687e-01 2.13292165e-01 -5.64327455e-01
-8.22495550e-01 5.60747802e-01 -9.51950267e-02
-8.31944454e-01 -3.24546789e-01 4.50042192e-01
9.53712033e-01 2.74411824e-01 1.23010987e-01
-9.86484575e-01 1.08736627e-01 -1.22572329e-01
-7.04991078e-01 7.39415722e-02 7.05351121e-01
-1.20412248e-01 -7.55151964e-01 -6.44396408e-01
-8.67477229e-01 2.31626699e-01 -4.40263065e-01
-7.00835946e-01 6.73245058e-01 2.35731398e-01
-1.24345239e-01 6.28083419e-01 -7.68146148e-01
-6.06076512e-01 2.62214945e-01 7.50942379e-01
-2.02680819e-01 9.65035470e-01 1.66211177e-01
-9.98670972e-02 9.94999724e-01 1.08507470e-03
-7.00503899e-01 -4.74439392e-01 5.33105941e-01
-2.66752150e-01 -5.02441040e-01 -8.22433128e-01
-1.39518457e-01 4.69053830e-01 -8.72079250e-01
7.77815962e-01 3.94657241e-01 -4.89129554e-01
-6.35235491e-01 3.48535682e-01 -6.89200883e-01
-3.07690323e-01 -9.35915371e-01 1.71434774e-01
5.21900994e-01 -8.40504680e-01 -1.45506471e-01
-1.07516487e-01 3.09003661e-02 9.93723184e-01
-3.21185069e-01 7.81784118e-01 5.34465305e-01
5.23933940e-01 2.04920109e-01 8.26741428e-01
2.37366887e-01 -6.36955962e-01 -7.33446923e-01
8.92767314e-01 3.42793129e-01 2.92334708e-01
5.54354822e-01 1.49571108e-02 8.32146391e-01
2.34079673e-01 5.80686920e-01 -7.79749071e-01
-7.75962524e-01 5.67439279e-01 -2.75488428e-01
-4.75791265e-01 -6.42324342e-02 -8.77209394e-01
-7.04162405e-01 5.52971621e-01 -4.45394997e-01
8.21932284e-01 -4.38946373e-01 -3.62979280e-01
9.94127143e-01 8.86574738e-04 -1.08216386e-01
-5.33648837e-02 -2.46599933e-01 -9.67646841e-01
-1.47906638e-01 5.93182895e-01 7.91364302e-01
-6.06158843e-01 5.19348882e-01 -6.02367996e-01
5.32367822e-01 6.87002269e-01 4.94582868e-01
4.73786408e-01 8.08313344e-01 -3.49507192e-01
-4.83788589e-01 -8.65710685e-01 1.28429960e-01
6.74928530e-01 7.37873326e-01 -3.74701970e-03
9.80253290e-01 1.90559798e-01 -5.28266087e-02
5.15404094e-01 4.06371272e-01 7.54467498e-01
-9.99482003e-01 -3.00098070e-02 1.16089308e-02
2.13150676e-01 4.29359948e-01 8.77620040e-01
5.48501919e-01 -3.59089940e-01 7.55116519e-01
3.89694268e-01 -4.46953510e-01 8.05215420e-01
-8.15960107e-01 -1.50261360e-01 -5.58238456e-01
-8.12848238e-01 -5.60783507e-01 -1.57479216e-01
-3.19710767e-01 3.96720262e-01 -8.60463347e-01
-9.32375570e-01 3.21737381e-01 1.64803720e-01
2.00397053e-01 2.34783780e-01 -9.51166138e-01
7.00327028e-01 -6.95727936e-01 1.59704964e-01
-8.93869202e-01 4.10686770e-01 -1.79814943e-01
-2.53605963e-01 -6.22021928e-01 7.40792509e-01
7.72643079e-02 7.93700969e-01 -6.03380504e-01
6.75218050e-01 1.86051499e-01 -7.13768307e-01
8.09465962e-01 5.87160958e-01 2.58162130e-03
-3.93647247e-01 -9.18715221e-01 -3.16992186e-02
4.90052151e-01 8.04995393e-01 3.34411329e-01
2.13524863e-01 -9.27260877e-01 3.07563755e-01
-3.25041283e-01 6.50574222e-01 6.86367942e-01
3.74897961e-01 3.25418430e-01 8.68075244e-01
2.38387480e-01 -8.70793497e-01 -4.29989271e-01
8.74795930e-03 -9.43794940e-01 3.30417299e-01
9.05450976e-01 -2.46469883e-01 -3.45559765e-01
-8.44010607e-01 -5.01407188e-01 1.90360521e-01
-4.44255575e-01 -5.28486771e-01 -7.23421505e-01
7.28274700e-01 6.62605557e-01 -1.74841222e-01
5.85678994e-01 -6.21622645e-01 5.20160016e-01
-2.82057515e-01 -2.75270114e-01 9.19059567e-01
1.66953444e-01 4.21947320e-02 -9.85061277e-01
1.11493934e-01 -6.50211808e-01 7.51528235e-01
5.00698322e-02 3.34521682e-01 9.41057074e-01
-4.50390800e-01 -8.60310388e-01 -2.38777395e-01
-3.76887995e-01 -6.98154417e-01 6.08717184e-01
-8.44870518e-01 -1.43376806e-01 5.15399776e-01
8.54095401e-01 4.09621825e-01 -3.20516509e-01
2.01640478e-01 8.52922357e-01 4.81522700e-01
-3.00957877e-01 -8.27563613e-01 4.73881491e-01
8.47053873e-01 5.06659749e-01 -1.60609604e-01
9.08005770e-01 3.23905284e-03 4.18945806e-01
7.77774530e-01 2.43745926e-01 5.79357462e-01
3.59115844e-01 -9.28693289e-01 -9.25501092e-02
9.01347120e-01 -4.05211785e-01 1.52897281e-01
-7.51555927e-01 3.83506937e-01 -5.36735707e-01
-7.63473629e-01 3.99876242e-01 5.07155380e-01
-8.59250159e-01 2.14494617e-01 4.64414580e-01
-9.14795738e-01 2.16172238e-02 4.03337643e-01
7.05349324e-01 -8.00141464e-02 7.04330004e-01
-2.09696225e-01 8.46563048e-01 -4.89241682e-01
-6.50154916e-01 -6.34513142e-01 4.17961915e-01
-5.54180607e-01 -8.28793681e-01 -7.73652037e-02
5.38064671e-01 3.39231178e-01 -7.71626962e-01
9.17717485e-01 3.96787605e-01 -1.88206919e-02
-9.73931928e-01 -1.70116204e-01 1.50056351e-01
2.38201900e-02 7.95531053e-01 6.05444068e-01
-8.70740595e-01 -4.91715891e-01 5.13731530e-03
-7.57519158e-01 1.20434625e-02 -6.52701355e-01
-2.23560940e-02 -3.01894592e-02 -9.99293927e-01
-9.14433236e-02 9.45699885e-01 3.11912014e-01
-2.80039140e-01 7.14080111e-01 -6.41612515e-01
-4.49265374e-01 6.33758181e-01 -6.29690516e-01
2.38978172e-01 -7.68252513e-01 -5.93867004e-01
-6.05426086e-01 -6.52350042e-01 -4.55959216e-01
9.08144573e-01 -3.67391971e-01 -2.00741565e-01
7.89134693e-01 5.28697811e-01 3.12642047e-01
6.67073048e-01 -7.18470787e-01 -1.97012940e-01
-6.00923518e-01 6.95625147e-01 3.93695183e-01
-1.03687184e-01 -1.73782663e-01 9.79310537e-01
2.16951578e-01 -5.21600684e-01 8.25145855e-01
4.17161516e-01 -7.10069228e-01 5.67255704e-01
6.50987201e-01 -4.47113329e-01 6.13438087e-01
-2.02027169e-01 -9.20249907e-01 3.35150765e-01
-1.02535055e-01 -9.78687827e-01 1.77925891e-01
-4.91241614e-01 3.03090461e-01 -8.16588634e-01
6.22163169e-02 -9.22234099e-01 -3.81594121e-01
1.92811450e-01 8.59361906e-01 -4.73624262e-01
-9.34759442e-01 2.46800348e-01 -2.55565365e-01
-5.57108453e-01 6.80914683e-01 -4.75378068e-01
3.76843752e-01 6.61179507e-01 6.48714350e-01
-5.85765241e-01 -4.36017355e-01 6.83204526e-01
-7.48200916e-01 2.42428202e-01 6.17595116e-01
-1.21181034e-01 -8.62697020e-01 -4.90988295e-01
-4.25621142e-01 -5.38980707e-01 7.26874883e-01
-9.12428655e-01 -1.09076299e-01 -3.94431054e-01
-4.92817774e-01 1.22548285e-01 -8.61459139e-01
-1.52146797e-01 2.93062770e-01 -9.43909317e-01
-1.91259075e-01 -1.16822213e-01 -9.74562521e-01
1.23718863e-01 -8.73064601e-01 4.71649129e-01
5.47121719e-01 5.10770910e-01 -6.63151832e-01
8.80258510e-01 1.98309909e-01 4.31066716e-01
-6.72304151e-02 -6.79636429e-01 7.30462403e-01
-9.85076520e-01 1.48314954e-01 8.73294612e-02
2.20058539e-01 2.35714649e-01 9.46579719e-01
8.03998107e-01 -5.55753628e-01 -2.11484453e-01
1.17200384e-01 9.93087642e-01 -6.33697100e-03
5.14854412e-01 8.57257786e-01 -5.78414260e-03
-1.52962455e-01 8.52753256e-01 4.99413432e-01
5.65400499e-01 -1.72622028e-01 8.06551097e-01
7.90459055e-01 -5.42779638e-01 2.83840952e-01
4.03234049e-01 -5.31943504e-01 -7.44606407e-01
5.25465267e-01 1.59572270e-01 -8.35716830e-01
-2.91418494e-01 -6.54604962e-01 -6.97544085e-01
2.94572758e-01 -9.48922584e-01 1.13021432e-01
7.55209145e-01 -6.53685720e-01 -4.85283060e-02
6.79760091e-01 5.63222400e-01 4.69794353e-01
-1.25014440e-01 4.28477986e-01 8.94861994e-01
-4.21156641e-01 6.16207454e-03 9.06967123e-01
-3.53869892e-01 -2.00303138e-01 -9.13594200e-01
-6.91435423e-01 -1.91231756e-01 -6.96668528e-01
9.93500594e-01 6.94089699e-02 9.02183215e-02
-5.52540037e-01 8.03734171e-01 2.20703532e-01
2.14010173e-01 9.62355720e-01 -1.67541808e-01
7.51363967e-01 5.63168984e-01 -3.43936797e-01
-7.31824826e-01 -2.99621045e-01 6.12094695e-01
6.11708085e-02 -7.12653648e-01 -6.98844223e-01
-9.77811578e-01 -7.08363668e-02 -1.97145388e-01
1.38952028e-02 9.88000753e-01 1.53820107e-01
9.51269073e-01 -2.33727949e-01 2.01144434e-01
3.76872861e-01 2.94223946e-01 -8.78292999e-01
7.00849988e-01 -6.14021177e-01 -3.63026105e-01
8.68665254e-01 4.72452146e-01 1.49028996e-01
2.18803556e-01 4.16326223e-01 -8.82494635e-01
-8.63189987e-01 3.68889219e-01 3.44707519e-01
9.70262603e-01 -1.84433001e-01 -1.56765536e-01
-3.94588615e-01 9.05094035e-01 -1.58441046e-01
3.52962971e-01 1.07601506e-01 -9.29429216e-01
6.30247250e-02 -5.63014379e-01 -8.24040556e-01
-5.60245440e-01 9.76259778e-02 8.22553516e-01
-4.09255916e-01 -3.71915532e-01 -8.33179579e-01
2.25906318e-01 3.37156091e-02 9.73565668e-01
8.14271510e-01 5.33313565e-02 5.78029606e-01
2.51715998e-01 -2.69189286e-01 -9.29610721e-01
-9.30574842e-01 -2.47897569e-01 -2.69401152e-01
9.49628363e-01 -6.17152725e-02 -3.07241746e-01
4.21764954e-01 8.92139780e-01 1.61865313e-01
2.38229690e-01 -1.60356554e-01 9.57879470e-01
-6.00850651e-01 -2.63058690e-01 7.54837048e-01
-3.06646464e-01 9.51764797e-01 1.05235012e-02
-9.76032130e-01 4.37031914e-03 2.17581908e-01
-9.57990862e-01 2.83037681e-01 -4.62873397e-02
3.16891819e-01 8.90834822e-01 3.25564700e-01
1.52176570e-03 9.86691414e-01 -1.62593896e-01
-3.04081084e-01 5.64655120e-01 -7.67266772e-01
-6.32513670e-01 5.61479693e-01 5.33541472e-01
6.47794808e-01 6.87795915e-01 3.27564439e-01
6.46708821e-01 2.82804115e-01 7.08371280e-01
-1.14475447e-01 2.36099160e-01 9.64962565e-01
5.84134459e-01 7.91532951e-01 -1.79616149e-01
4.97286917e-01 -7.69783914e-01 4.00174372e-01
-4.88119429e-01 -7.44598404e-01 4.55316731e-01
3.95787587e-02 5.15787424e-01 8.55801851e-01
-7.86963625e-01 -4.95620384e-01 3.67490121e-01
3.33300986e-02 3.52466640e-01 -9.35230255e-01
-9.07860687e-02 -5.37351184e-01 8.38458368e-01
-3.87175556e-01 9.00491433e-01 1.98013623e-01
5.57613212e-01 -8.02303462e-01 2.13020437e-01
3.93145009e-01 4.70985009e-01 -7.89689488e-01
8.78869718e-01 -4.74257312e-01 -5.16602018e-02
-4.57616621e-01 -6.67507304e-01 -5.87385026e-01
-7.75331954e-01 6.27379783e-01 7.24853544e-02
-4.44251011e-01 -1.83492926e-01 8.76910362e-01
-7.68970304e-01 2.04139491e-01 -6.05814297e-01
-5.59606030e-01 8.16598691e-01 -1.41444842e-01
4.15617376e-01 8.92724547e-01 -1.74081481e-01
-2.88889844e-01 -9.37882423e-01 -1.92145405e-01
9.02315176e-01 -1.89168638e-01 3.87354185e-01
1.83373668e-01 -9.82190897e-01 -4.09399337e-02
2.33153908e-01 -9.40940025e-01 -2.45503460e-01
-2.67943391e-01 -8.39901106e-02 9.59766856e-01
-8.23507512e-01 4.74507455e-02 5.65317341e-01
3.98951834e-01 -8.69121100e-01 -2.92346974e-01
6.22739425e-02 6.68133776e-01 -7.41429896e-01
8.19424871e-01 -5.64190688e-01 1.01156472e-01
-4.74300638e-01 4.74367876e-01 -7.41628652e-01
9.91843975e-01 -1.19174040e-01 4.52062428e-02
-1.99649319e-02 8.82889846e-01 -4.69154452e-01
8.62193010e-02 -3.67673147e-01 -9.25949578e-01
-5.97792792e-01 -7.51554362e-01 -2.78944660e-01
1.64060316e-02 1.68795239e-01 -9.85514283e-01
-1.13936702e-01 -6.18203498e-01 -7.77716535e-01
-2.96664471e-01 -8.76248416e-01 -3.79709620e-01
-5.39993165e-01 -2.26862394e-01 -8.10518625e-01
-7.23192198e-01 -6.48189170e-01 2.38420317e-01
-7.02681379e-01 7.01419033e-01 -1.19370222e-01
-8.45393621e-01 -4.36891663e-01 -3.07303123e-01
-1.14200319e-01 9.40671422e-01 -3.19522334e-01
5.42216578e-01 -3.64687275e-01 -7.56970650e-01
2.38281411e-01 -3.46312024e-01 9.07353726e-01
-4.43089733e-01 -3.66975482e-01 8.17924825e-01
6.53613282e-01 1.89664184e-03 -7.56826260e-01
6.24026992e-01 6.96752117e-01 -3.53731903e-01
-3.29334432e-01 2.15056130e-01 -9.19395963e-01
-1.10117112e-01 -3.60991041e-01 9.26045573e-01
5.61557730e-02 1.36318114e-01 9.89072426e-01
-3.90063322e-01 7.79415907e-01 -4.90265603e-01
3.29337771e-01 9.44143147e-01 -1.13854268e-02
5.53506962e-01 -7.60088139e-01 -3.40436207e-01
3.66765067e-01 5.13665696e-01 7.75648753e-01
6.10098267e-01 -1.82975239e-01 -7.70908694e-01
8.63465111e-01 -3.71764021e-01 3.40911068e-01
-7.28120880e-01 -3.46047158e-01 -5.91684958e-01
-6.40828856e-01 7.04606584e-01 -3.04740717e-01
-1.15582618e-01 -9.83371438e-01 -1.40078714e-01
8.90912938e-01 6.21207282e-02 -4.49905816e-01
6.87104107e-01 1.02461089e-01 7.19298403e-01
4.02479551e-01 6.29583448e-01 -6.64555624e-01
6.61390357e-01 5.46587610e-01 -5.13618841e-01
2.32503464e-02 8.93849946e-01 4.47762338e-01
3.72189008e-01 7.83690778e-01 4.97296475e-01
-8.19127214e-02 -4.50959409e-01 -8.88777741e-01
3.93836559e-01 -8.79745814e-01 2.66347783e-01
-2.82425924e-01 3.29094608e-01 9.01072888e-01
2.37168500e-02 6.69977082e-01 7.42002679e-01
7.94204793e-01 -3.26070849e-01 5.12754719e-01
5.66117682e-01 -5.19935536e-01 -6.39670387e-01
-6.43627434e-01 1.66375405e-01 -7.47035603e-01
-7.48001256e-01 5.45274183e-01 3.78377552e-01
1.17014403e-01 -1.53784129e-01 -9.81151261e-01
-1.87085727e-01 -7.68197084e-01 6.12268792e-01
6.16440935e-02 -4.54623972e-01 8.88548198e-01
-7.40107128e-01 -4.86907984e-01 -4.63855555e-01
-4.83233800e-01 8.13147147e-01 -3.24462223e-01
4.66075873e-01 -8.82615723e-01 6.13496264e-02
-8.63610973e-01 4.78720722e-02 -5.01880191e-01
4.95380984e-01 -2.23914688e-02 -8.68387077e-01
-6.37056624e-01 -7.65890866e-01 8.70086926e-02
9.59474131e-01 1.21866389e-01 -2.54082926e-01
-4.44782179e-01 8.09589914e-01 3.83056468e-01
-5.83052706e-01 -3.81657181e-01 -7.17207858e-01
2.45058166e-01 7.24266080e-01 -6.44503132e-01
7.06287233e-01 -4.89779700e-01 -5.11150345e-01
9.67355149e-02 9.41719136e-01 -3.22189928e-01
-1.63119600e-01 1.02279659e-01 -9.81290095e-01
-4.28475009e-01 2.18303561e-01 8.76785472e-01
-3.05569042e-01 8.93057254e-01 -3.30265380e-01
7.86156055e-01 3.00339922e-02 -6.17297835e-01
9.68576196e-01 -5.12514198e-02 2.43380350e-01
4.94894765e-01 -5.47378874e-01 6.74875209e-01
7.42461963e-01 6.48949734e-01 1.66175417e-01
6.12715575e-02 -8.32700732e-01 -5.50323362e-01
-1.03552958e-01 7.66833494e-01 -6.33436776e-01
-7.33858509e-01 -1.16519591e-01 6.69234634e-01
-2.75423351e-01 8.93582663e-01 3.54473206e-01
4.77865234e-02 5.20053206e-01 -8.52795558e-01
3.79868521e-01 -3.74802210e-01 -8.45708758e-01
3.20139194e-01 -6.27765351e-01 7.09522787e-01
-2.97343413e-01 -7.80980967e-01 -5.49232145e-01
-2.15733458e-01 -9.76322903e-01 1.59204981e-02
-9.43287380e-01 7.19293649e-02 -3.24090247e-01
2.21187766e-01 -7.59547340e-01 6.11690174e-01
6.75067453e-01 4.30458795e-01 5.99157178e-01
1.07212958e-01 -9.81216803e-01 1.60374461e-01
4.06951684e-01 -7.83447297e-01 -4.69682136e-01
6.85280315e-01 -3.42739040e-01 -6.42589390e-01
2.32257738e-01 9.61336043e-01 1.47948145e-01
-8.37554897e-01 4.05550263e-01 -3.66100950e-01
5.23165635e-01 6.75988719e-01 -5.18976232e-01
-7.27016374e-01 -6.10596319e-01 -3.14037315e-01
-5.76775459e-01 -7.67537904e-01 2.79671639e-01
-1.19120685e-01 -9.39313096e-01 -3.21716981e-01
-4.59216215e-01 -7.80428914e-01 -4.24324753e-01
-6.27716102e-01 -2.64826584e-02 -7.77991370e-01
6.74941559e-01 3.66378925e-01 -6.40484206e-01
-2.81490540e-03 -9.99942157e-01 1.04240667e-02
-4.80348488e-01 6.83855859e-01 5.49186620e-01
-8.44607873e-01 -3.01560566e-01 -4.42378220e-01
-9.17140786e-01 -3.75148220e-01 -1.34597534e-01
-4.83456216e-01 8.74819779e-01 3.09753765e-02
-7.66600335e-01 -6.40469249e-01 4.60798808e-02
-8.35778048e-01 5.06249959e-01 2.12568438e-01
-9.76615814e-01 -2.06055385e-01 -6.13391687e-02
3.01580886e-01 8.95244783e-01 -3.28001388e-01
2.99728711e-02 -7.89000706e-01 6.13661570e-01
-8.93408715e-01 4.47874076e-01 3.50561497e-02
4.46753931e-01 -2.01768058e-01 -8.71608013e-01
-9.38321838e-01 -3.36375099e-01 8.00242661e-02
6.71323220e-02 -2.67425742e-01 9.61237453e-01
6.24285418e-02 -6.89786989e-02 9.95663181e-01
5.92445646e-01 7.88443419e-01 1.65422908e-01
-6.31309394e-01 4.17104493e-01 6.53813404e-01
-6.39786071e-01 7.66711365e-01 5.31652535e-02
3.16866593e-01 -8.34197124e-01 4.51344446e-01
9.33261091e-01 3.05086154e-01 -1.89594800e-01
-4.05327092e-01 -8.57866364e-01 3.15873404e-01
-9.01655596e-01 -3.36298966e-01 2.71882800e-01
8.63317641e-01 -1.19033858e-01 -4.90422080e-01
9.52906014e-01 1.43510223e-01 2.67161605e-01
-2.21896788e-01 -3.29796588e-01 -9.17603293e-01
7.33732488e-01 -5.04373775e-01 4.55241357e-01
-3.12007097e-01 4.99022041e-01 8.08472868e-01
4.07918025e-01 -2.60490941e-01 8.75070376e-01
-6.04675269e-01 -5.25199680e-01 -5.98776305e-01
-4.66156827e-01 3.88963402e-01 7.94610042e-01
6.07984217e-02 -9.78841062e-01 -1.95383060e-01
-5.48350948e-01 -6.01190935e-01 5.81275571e-01
8.20944397e-01 -1.37682402e-01 5.54161139e-01
-6.95047950e-01 -7.08961387e-01 -1.19508996e-01
4.03214860e-01 -7.12555623e-02 9.12327285e-01
5.34382669e-01 5.57136773e-01 6.35636525e-01
-2.73218109e-01 -4.57767498e-01 8.46050519e-01
-2.72279083e-01 1.25984037e-01 9.53935190e-01
-9.39305016e-01 1.82043777e-01 2.90801899e-01
4.11133668e-01 -6.69200709e-01 -6.18983033e-01
5.68644758e-01 -6.52246727e-01 -5.01216447e-01
3.66198571e-01 7.81130957e-01 -5.05699756e-01
2.02856297e-01 6.03018181e-01 7.71503919e-01
2.25072353e-01 -4.77313034e-01 -8.49420288e-01
-1.56792109e-01 7.36328843e-01 6.58206390e-01
1.29302300e-01 9.44539067e-01 3.01871181e-01
6.55272679e-01 -6.70510701e-01 3.47899620e-01
6.21006603e-01 -7.83780484e-01 6.31745910e-03
-5.93165160e-01 -8.39671385e-02 8.00690218e-01
-4.85012932e-01 5.44025360e-01 6.84688615e-01
3.10870374e-01 -8.14235219e-02 -9.46958064e-01
3.82479967e-01 1.22200864e-01 9.15847420e-01
-8.82562121e-02 -8.71534229e-01 4.82327589e-01
-3.24825341e-01 1.94580283e-02 -9.45573525e-01
6.96390812e-01 -2.63842146e-01 6.67403917e-01
8.00904582e-01 3.92442802e-01 4.52261738e-01
-2.07157806e-01 9.65414114e-01 -1.58304158e-01
8.88397472e-01 2.38907322e-01 -3.92011712e-01
-9.26115537e-01 -1.61181294e-01 3.41072624e-01
