3.66029240e-01 -2.89300772e-01 8.84492881e-01
8.19920503e-02 4.57383587e-01 -8.85481541e-01
-1.66749390e-01 -2.59459790e-01 -9.51249320e-01
5.22223320e-02 -9.23247127e-01 -3.80641019e-01
-9.07849130e-01 3.63573335e-01 -2.08864502e-01
6.16453176e-01 -5.78519125e-02 7.85263418e-01
6.52384225e-02 9.75766587e-01 -2.08862409e-01
-7.86287511e-01 2.22740623e-01 -5.76314639e-01
-6.08508250e-01 7.73618486e-01 -1.76726163e-01
4.44494125e-02 3.60298860e-01 9.31777317e-01
8.03090441e-01 4.01768671e-01 -4.40031455e-01
1.79343771e-01 -4.67777760e-02 -9.82673731e-01
1.67629014e-07 2.18180533e-06 9.99999996e-01
5.02745370e-01 -7.68796119e-01 -3.95220995e-01
-8.69728243e-01 -4.89953707e-01 -5.93139926e-02
-7.45244198e-01 4.06485285e-01 -5.28564844e-01
3.69377988e-01 -2.85015979e-01 -8.84491835e-01
-8.85866096e-01 1.47006509e-01 -4.40034481e-01
-8.93928105e-01 -8.52255067e-02 4.40033122e-01
-4.95630565e-01 -1.90265206e-01 -8.47437019e-01
3.74094285e-01 -4.60631615e-01 -8.04904960e-01
1.09325811e-02 -1.85018399e-01 -9.82674250e-01
9.32083496e-01 -1.38192434e-01 3.34848041e-01
-7.40728871e-01 3.58322073e-01 5.68265800e-01
-9.40266922e-01 -1.83905595e-01 -2.86490570e-01
-5.09561243e-01 3.51720263e-01 -7.85264412e-01
5.30940444e-01 5.40746862e-01 -6.52453123e-01
-8.33660800e-01 5.49082735e-01 5.93111239e-02
-8.47391541e-01 2.26715880e-01 4.80132769e-01
1.82153796e-01 3.42313420e-02 9.82674006e-01
-8.03049437e-01 4.92937630e-01 -3.34849350e-01
-4.09659090e-01 2.19316214e-01 -8.85482824e-01
-4.36761689e-01 8.95363562e-01 8.69672698e-02
6.60632495e-01 -7.01498808e-01 -2.67327779e-01
-3.89118041e-02 -3.05958522e-01 9.51249310e-01
5.12811858e-01 -1.37398079e-01 -8.47434821e-01
-2.98288001e-01 7.84127039e-02 -9.51249558e-01
2.71808257e-01 8.44247369e-01 4.61916269e-01
3.89322071e-01 8.83412087e-01 -2.60789960e-01
2.12611115e-01 -8.61063683e-01 -4.61915427e-01
3.34114755e-01 8.21585013e-01 -4.61914918e-01
1.59099275e-02 -9.99715259e-01 1.77844718e-02
-7.99840955e-01 -1.67681675e-01 5.76313540e-01
1.78636761e-01 -9.74016290e-01 1.39216325e-01
-7.71637856e-01 -3.53829829e-01 5.28563589e-01
3.63988485e-01 -7.66899027e-01 -5.28562465e-01
8.68788583e-01 -4.03893802e-01 -2.86489451e-01
2.64594761e-01 9.62533926e-01 5.93130913e-02
-8.35298388e-01 -4.36066387e-01 3.34847290e-01
-6.17160924e-01 3.00276598e-01 7.27286977e-01
4.27991566e-01 8.92996262e-01 1.39215250e-01
-5.73398744e-01 1.52771510e-01 -8.04906670e-01
2.61504550e-01 7.22034101e-01 -6.40532688e-01
3.56398589e-01 6.90643207e-02 9.31777956e-01
-7.18839921e-01 -3.41595551e-02 6.94335858e-01
-6.00491227e-01 7.99433618e-01 1.77810379e-02
9.91612462e-01 -1.14833686e-01 -5.93123537e-02
3.63613623e-01 -6.23141526e-01 -6.92444790e-01
6.78117946e-01 4.79493014e-01 -5.56994168e-01
2.31024728e-01 4.03175067e-01 8.85481467e-01
-5.27138235e-01 6.31819871e-01 -5.68268358e-01
-3.00881535e-01 -7.74097750e-01 5.56994596e-01
6.92680476e-01 -2.01775041e-01 6.92445370e-01
-2.75837425e-01 9.61204298e-01 -1.21576161e-06
-9.25252065e-01 2.48662286e-01 2.86488524e-01
-5.69683296e-01 -5.93744716e-01 5.68267679e-01
-1.88121122e-01 -9.45063501e-01 2.67330191e-01
8.86525131e-01 2.40569751e-01 -3.95220688e-01
1.56600685e-01 -9.29167364e-01 3.34849585e-01
6.02381959e-01 -7.45022916e-01 2.86490557e-01
9.64915127e-01 3.04398758e-02 2.60791514e-01
-6.35959946e-01 -4.30428835e-01 -6.40535692e-01
-4.64717904e-01 4.09146233e-01 7.85262133e-01
-2.28738746e-01 2.81899976e-01 -9.31778403e-01
6.01631961e-01 -3.94887656e-01 6.94336176e-01
6.99362129e-01 7.07950907e-01 -9.84790404e-02
-9.80623883e-01 5.99693720e-02 1.86495223e-01
2.02513001e-01 -4.18222843e-01 -8.85481875e-01
8.28922020e-01 5.59364176e-01 1.33305593e-06
-7.63790963e-01 -3.06095360e-01 -5.68268423e-01
-8.61071504e-01 -1.67410408e-01 -4.80135004e-01
4.38003615e-01 6.96582423e-01 -5.68265571e-01
8.86920131e-01 2.38029770e-03 4.61916676e-01
-2.66768852e-01 -7.86505252e-01 -5.56995404e-01
-7.62668293e-01 -6.31629573e-01 -1.39216243e-01
8.18814133e-01 3.14665410e-01 4.80134452e-01
5.28907963e-01 -4.88011463e-01 -6.94335073e-01
9.63333293e-01 2.01883824e-01 1.76725462e-01
-5.94529383e-02 7.55493997e-01 6.52452416e-01
-6.26320195e-01 -7.51065092e-01 -2.08864189e-01
2.78960400e-01 -1.31553345e-01 9.51249078e-01
1.11886371e-01 8.15202418e-01 5.68266173e-01
-4.06641144e-01 7.08878493e-01 5.76310894e-01
-4.97796425e-01 -8.62922345e-01 -8.69698458e-02
-3.12050707e-01 3.44307598e-01 8.85481011e-01
5.76907814e-01 7.89653900e-01 2.08863794e-01
-7.16967859e-01 -6.11418891e-01 -3.34849274e-01
-1.62032129e-01 -4.37513349e-01 8.84492881e-01
2.89142104e-01 4.45254145e-01 -8.47434713e-01
-1.95187799e-01 -8.76511236e-01 4.40033842e-01
-5.84919940e-01 7.16225507e-01 -3.80643768e-01
-4.25302269e-01 7.67195082e-01 -4.80135063e-01
5.32498262e-01 -3.19226001e-01 -7.83926255e-01
-7.19867713e-01 6.43255559e-01 -2.60792549e-01
2.77947893e-02 -5.30169431e-01 -8.47436037e-01
-4.62390485e-02 8.75976407e-01 4.80132555e-01
-8.36620871e-01 3.93926536e-01 3.80640765e-01
5.20760830e-01 -8.27758970e-01 -2.08861818e-01
5.50897119e-02 -8.20998354e-01 -5.68266522e-01
-1.11695555e-01 -7.49551936e-01 -6.52453839e-01
2.21498724e-02 -7.21130024e-01 6.92445575e-01
-6.72846324e-01 6.59663475e-01 3.34846100e-01
-1.39049663e-01 -6.05081368e-01 -7.83927128e-01
-3.65304605e-01 -8.54379414e-01 3.69578635e-01
-4.13559293e-01 -7.97081746e-01 -4.40033423e-01
2.45513497e-01 5.68406047e-01 7.85262807e-01
1.97211816e-01 -9.78565136e-01 -5.93109275e-02
9.73774976e-01 2.26817348e-01 -1.77816823e-02
4.54831530e-01 -9.51302757e-02 8.85482075e-01
-2.11590665e-01 8.03111255e-01 5.56993435e-01
2.12839587e-01 -7.37845068e-01 -6.40534136e-01
-4.63016696e-01 -8.45074302e-01 -2.67329335e-01
7.00144738e-01 2.90001170e-01 6.52454337e-01
4.51555373e-02 9.17475399e-01 -3.95221283e-01
-4.77481630e-01 -7.35855324e-01 4.80133563e-01
8.41843230e-01 1.09189518e-01 -5.28561852e-01
-7.29093794e-02 -5.88907346e-01 8.04905187e-01
5.16628941e-01 -8.56024747e-01 -1.77815416e-02
-8.79187526e-01 -2.66136959e-01 3.95221975e-01
6.65855952e-01 -1.66403073e-01 -7.27286655e-01
-4.91968089e-01 -3.75935455e-01 -7.85264250e-01
-7.79825141e-01 -6.23181336e-01 5.93108374e-02
8.71311412e-01 4.11524640e-01 -2.67327320e-01
1.95233900e-01 -2.38766946e-01 -9.51248696e-01
-9.99398064e-01 3.46915515e-02 -9.98507737e-07
-8.30446070e-01 1.06691505e-02 -5.56996853e-01
2.05509171e-01 -5.84061236e-01 -7.85263311e-01
7.21048295e-02 7.17859287e-01 -6.92444175e-01
9.39423063e-01 7.32247552e-02 -3.34846905e-01
-5.17379071e-01 -8.50070949e-01 9.84798714e-02
3.65036970e-01 -9.20525769e-01 -1.39213267e-01
5.00751222e-02 -4.61967379e-01 8.85482141e-01
5.47716747e-01 8.17786777e-01 -1.76723363e-01
-8.71142624e-01 -4.70882327e-01 1.39213369e-01
-1.31301607e-01 4.47697320e-01 -8.84492509e-01
-3.11358423e-01 -9.31812916e-01 -1.86495666e-01
-9.30875083e-01 -2.99746573e-01 2.08862562e-01
-6.60688525e-01 -7.29561229e-01 1.76723203e-01
5.53689907e-01 2.13441445e-01 -8.04903872e-01
-5.74963452e-01 6.24531699e-01 5.28561417e-01
4.68153705e-01 4.07789744e-01 -7.83925785e-01
7.07687426e-01 6.53998008e-01 2.67329582e-01
3.51700433e-01 -9.34231595e-01 5.93139454e-02
4.38747072e-01 -4.39270139e-01 7.83927772e-01
2.76336928e-01 -8.42775045e-01 4.61917886e-01
-6.36495084e-01 -2.56757477e-01 -7.27289222e-01
1.93602699e-02 -3.62511309e-01 -9.31778269e-01
2.57567835e-01 -4.64230647e-01 8.47436556e-01
6.66859650e-01 -7.40091034e-01 -8.69682748e-02
-1.22134246e-01 9.55833993e-01 -2.67328625e-01
4.05134132e-01 4.33582581e-01 8.04905256e-01
8.88429385e-02 -1.62658967e-01 9.82674405e-01
8.67708356e-01 -3.01465861e-01 3.95222150e-01
4.45293414e-01 -8.10447042e-01 3.80643371e-01
9.81546537e-01 -1.31093997e-01 1.39214815e-01
-5.22413137e-01 -8.03124193e-01 2.86489178e-01
-9.74515619e-01 2.06773758e-01 -8.69707756e-02
-7.47380797e-01 -1.25394856e-01 -6.52455422e-01
1.16117277e-01 9.17403172e-01 3.80641806e-01
-8.76922753e-02 -8.12510094e-01 5.76313644e-01
-6.78126285e-01 5.71643716e-01 -4.61917956e-01
-2.06657594e-01 9.05928035e-01 3.69576812e-01
8.94197345e-01 -2.35633245e-01 -3.80641686e-01
-4.80278507e-01 -5.38378426e-01 -6.92445836e-01
-2.45995120e-01 9.51160453e-01 1.86494447e-01
-1.27245153e-01 -1.34757899e-01 9.82674398e-01
-2.95812575e-01 9.36863809e-01 -1.86496953e-01
5.37553715e-01 -2.51321978e-01 8.04905750e-01
6.18982928e-01 1.49651664e-02 -7.85261859e-01
-8.61921571e-01 -3.34965444e-01 -3.80643350e-01
8.89415694e-01 -4.46364636e-01 -9.84801821e-02
7.16575588e-01 6.92066172e-01 8.69703081e-02
6.43234821e-01 -5.25361535e-01 5.56995716e-01
7.89991060e-01 -5.84066444e-01 -1.86495377e-01
6.44894110e-02 5.26968014e-01 8.47434844e-01
-6.33178898e-01 -6.73941235e-01 3.80641166e-01
9.88274548e-01 6.27129664e-02 -1.39213885e-01
-4.76292915e-01 -4.94161969e-01 7.27288804e-01
-3.05178248e-01 8.77654441e-01 -3.69579371e-01
-4.81246224e-01 2.24177292e-01 8.47435308e-01
-2.47737351e-01 -2.65357791e-01 9.31778644e-01
2.45748856e-01 9.59284615e-01 -1.39213930e-01
9.09939211e-01 4.05520933e-01 -8.69678425e-02
7.45645504e-01 -3.34478540e-01 5.76313189e-01
2.29523929e-06 1.03675404e-06 -1.00000000e+00
-5.82613382e-01 -1.12641205e-01 8.04905956e-01
-8.98018854e-01 4.02903226e-01 1.76723281e-01
3.85212571e-01 2.63223763e-01 -8.84491115e-01
-1.06868976e-01 -8.70661348e-01 -4.80133162e-01
-8.58616239e-01 3.26460490e-01 -3.95223604e-01
6.30271798e-01 -6.39632170e-01 -4.40032001e-01
5.48524178e-01 6.05792116e-01 5.76313395e-01
-3.50210064e-01 6.72053245e-01 -6.52454859e-01
-1.49673083e-01 -9.83819024e-01 -9.84789682e-02
6.98418595e-01 4.49407256e-01 5.56996030e-01
8.79627873e-01 -4.67644259e-01 8.69693148e-02
-3.95971489e-01 -6.46149217e-01 6.52455186e-01
4.16291747e-01 7.39812040e-01 5.28563445e-01
-3.38784813e-01 -1.30433634e-01 -9.31778904e-01
-1.85748063e-02 -9.18397028e-01 3.95223839e-01
-9.56941570e-01 -1.13128896e-01 2.67328784e-01
9.18227742e-01 3.83613362e-01 9.84814785e-02
-3.41825932e-01 -9.39763290e-01 4.08987969e-07
-7.17034728e-01 6.82994087e-01 1.39213016e-01
-1.72583706e-01 -6.75691746e-02 -9.82674554e-01
5.52291878e-01 -6.81501668e-01 4.80134527e-01
-3.03008941e-01 -5.75373325e-02 9.51249194e-01
1.77043755e-01 5.93311427e-01 -7.85262415e-01
3.88251383e-01 2.58717124e-01 8.84492117e-01
9.80617053e-02 -8.43209995e-01 5.28564861e-01
8.09877899e-01 1.45499096e-01 5.68267366e-01
5.98221780e-01 6.41563420e-01 -4.80132355e-01
-1.48358407e-01 2.70400688e-01 9.51248254e-01
-4.03303823e-01 8.75147133e-01 2.67326592e-01
7.67046005e-01 2.81967363e-01 -5.76311406e-01
-6.78989958e-01 -2.43907645e-01 6.92446166e-01
-9.46793251e-01 1.79212191e-01 -2.67330371e-01
-2.87168598e-01 5.19291850e-01 8.04903818e-01
-3.57294084e-01 8.23840959e-01 4.40030678e-01
7.97839557e-01 -2.01310142e-01 -5.68266029e-01
-2.82190795e-01 -5.53015077e-01 7.83927726e-01
8.51956083e-02 9.96205545e-01 -1.77822869e-02
4.19457557e-01 8.43760622e-01 3.34848265e-01
5.00422538e-01 7.77618133e-01 -3.80640669e-01
1.05682129e-01 9.78570193e-01 1.76724795e-01
-3.28926806e-01 1.53614297e-01 9.31777759e-01
9.48651099e-02 6.79745966e-01 7.27286752e-01
3.22794490e-01 -6.05685288e-01 7.27288836e-01
9.60481700e-01 -9.72787385e-02 -2.60790642e-01
2.63490828e-01 7.21310359e-01 6.40534103e-01
-4.40877932e-01 5.26001601e-01 -7.27288775e-01
-9.23794767e-01 -3.39663462e-01 -1.76725671e-01
-6.04584236e-01 4.73492605e-01 6.40533091e-01
-2.54623863e-01 6.73102642e-01 6.94333858e-01
2.20656316e-01 9.16072205e-01 -3.34846979e-01
3.88643793e-01 -7.25277452e-01 5.68268093e-01
-6.60441590e-01 2.90404204e-01 -6.92446607e-01
-9.82421497e-01 8.17267564e-03 -1.86497201e-01
-5.72733079e-01 7.92687726e-01 2.08861138e-01
-3.35172446e-01 -3.21838490e-01 -8.85482596e-01
5.05196004e-01 -6.42371518e-01 -5.76312281e-01
-4.94257483e-02 9.56807765e-01 2.86489062e-01
8.40676544e-01 -4.70954627e-01 2.67328813e-01
9.55702151e-01 -2.93797858e-01 1.77827106e-02
-8.36393486e-01 5.30155456e-01 -1.39216094e-01
-7.53218452e-01 -4.68288399e-01 -4.61917681e-01
2.37342124e-02 1.83818076e-01 9.82673696e-01
3.59937734e-01 -8.70817206e-01 -3.34846585e-01
6.99678478e-01 -6.11442127e-01 3.69578896e-01
7.73296414e-01 -4.56490638e-01 4.40032907e-01
-1.17592428e-01 1.43259683e-01 -9.82674254e-01
8.94705020e-01 3.42674829e-01 2.86490639e-01
3.27125058e-01 -9.08282149e-01 2.60792533e-01
-4.66358123e-01 1.34685656e-02 -8.84493473e-01
-6.37144626e-01 -4.28673795e-01 6.40535323e-01
1.75815489e-01 -3.17612395e-01 9.31778556e-01
6.78350258e-01 -3.37855008e-01 -6.52453013e-01
-9.21121230e-01 3.88869381e-01 -1.77841408e-02
-9.25449010e-01 8.34039927e-02 3.69577996e-01
7.99600615e-01 5.70840321e-01 -1.86494457e-01
9.99113050e-02 1.56109315e-01 -9.82673710e-01
-1.75996451e-02 3.07922086e-01 -9.51248782e-01
5.53351567e-01 2.81532217e-01 7.83927067e-01
-5.75809607e-01 -7.15710842e-01 -3.95223098e-01
-9.29004036e-01 -1.90314604e-02 -3.69579902e-01
-9.86508087e-01 -1.38701778e-01 8.69690064e-02
-3.34110048e-01 4.12579693e-01 -8.47436413e-01
-1.41048641e-01 7.05693226e-01 -6.94335904e-01
9.97188501e-01 4.57935794e-02 5.93131055e-02
3.75699817e-02 -9.83543336e-01 -1.76722990e-01
5.74745849e-01 8.18138707e-01 1.77836623e-02
7.97728190e-01 4.76488009e-01 3.69579365e-01
2.04287308e-01 -9.43533530e-01 -2.60789546e-01
-2.46474123e-01 7.93098933e-01 -5.56996034e-01
6.48585787e-01 -7.54743614e-01 9.84812881e-02
-4.66171188e-01 1.89043656e-02 8.84492532e-01
7.95023060e-01 -3.70689209e-01 -4.80133164e-01
-1.33936001e-01 8.87937097e-01 -4.40032785e-01
4.92163954e-01 -5.76261710e-01 6.52454664e-01
-4.57187801e-01 8.83900781e-01 -9.84820416e-02
-9.81918658e-01 -1.61670227e-01 -9.84808869e-02
4.75031630e-02 -6.84686708e-01 -7.27287822e-01
-7.14739471e-01 8.39239742e-02 -6.94337279e-01
-7.36888296e-01 1.76918700e-01 6.52453372e-01
-9.68344919e-01 2.29368721e-01 9.84789332e-02
7.62765985e-01 -5.30660165e-01 -3.69577940e-01
4.15637308e-01 9.07594482e-01 -5.93116909e-02
1.35473304e-01 -6.04158687e-01 7.85263820e-01
-8.34224239e-01 -4.85857196e-01 -2.60792463e-01
-6.18433646e-01 -5.47356259e-02 -7.83928467e-01
9.08384367e-01 1.73057534e-01 3.80642786e-01
6.65573848e-01 -4.96758002e-01 -5.56994572e-01
1.97420287e-01 3.04657676e-01 -9.31777300e-01
-3.60065415e-01 -9.14096253e-01 1.86496502e-01
7.67504215e-01 -2.55846776e-02 -6.40533148e-01
-4.41792262e-01 5.70387357e-01 6.92443389e-01
4.89689111e-01 -8.53798911e-01 1.76725791e-01
-3.18940076e-02 5.92545780e-01 -8.04905131e-01
6.27568582e-01 3.52217968e-01 -6.94334345e-01
2.11319202e-01 2.24656312e-01 9.51248510e-01
-1.89647793e-01 -6.94213551e-01 6.94335122e-01
2.69224104e-01 9.27095611e-01 2.60791292e-01
-6.05884236e-01 4.71824224e-01 -6.40535862e-01
8.28591318e-01 5.27878116e-01 1.86496966e-01
2.87414189e-01 1.11894103e-01 -9.51248023e-01
-6.16884016e-01 -5.83158561e-01 -5.28564293e-01
7.88137613e-01 -6.15499077e-01 5.54472331e-07
9.48169371e-01 2.39481996e-01 -2.08861728e-01
2.10805044e-01 -7.38427575e-01 6.40535678e-01
6.75790832e-01 1.19828760e-01 7.27287986e-01
5.61474460e-01 4.50159853e-01 6.94336035e-01
7.67429536e-01 -2.76993559e-02 6.40534660e-01
5.54846967e-01 7.32081884e-01 3.95222658e-01
-6.13151319e-01 9.74888501e-02 7.83926893e-01
8.84620675e-01 -6.38780922e-02 -4.61915425e-01
-9.45868934e-01 -3.24061360e-01 1.77818561e-02
6.73109522e-01 5.94385398e-01 4.40033592e-01
-7.34735359e-01 6.75755713e-01 -5.93140582e-02
-1.15654315e-01 -9.51077477e-01 -2.86488613e-01
-3.61916389e-01 -3.88416754e-01 8.47436693e-01
1.56298634e-01 8.34381877e-01 -5.28561837e-01
3.64018844e-01 5.81845919e-01 -7.27286469e-01
-2.58184993e-03 -9.77941123e-01 2.08864800e-01
-1.72935965e-01 -9.81085757e-01 8.69706796e-02
-7.18934810e-01 5.19391416e-01 4.61914800e-01
8.32244002e-01 -1.67303837e-01 5.28563477e-01
-8.29188122e-01 4.69415004e-02 5.56995103e-01
7.05006784e-01 1.53255868e-01 -6.92443557e-01
-6.54479867e-01 -7.55870253e-01 -1.77840193e-02
-5.32724742e-01 -3.15537572e-01 7.85264532e-01
-2.43161788e-01 5.71253011e-01 -7.83927510e-01
-9.67593057e-02 6.13268586e-01 7.83925547e-01
-4.54815442e-01 -6.78973952e-01 -5.76313540e-01
3.50753561e-01 -9.36106591e-02 -9.31777331e-01
-5.24796221e-01 7.53916458e-01 3.95220047e-01
6.52595786e-01 7.01458004e-01 -2.86488056e-01
4.05948214e-01 5.96427471e-01 6.92445166e-01
9.29279792e-01 -3.04656072e-01 2.08862997e-01
-1.67484878e-01 7.93768711e-02 9.82673963e-01
7.58090618e-01 -6.24914150e-01 1.86496458e-01
-1.26078487e-01 4.49198741e-01 8.84491206e-01
9.47014731e-01 -2.68200535e-01 -1.76724590e-01
-2.68978276e-01 -8.89416985e-01 -3.69578309e-01
-7.98526886e-01 5.42534462e-01 2.60789489e-01
-7.62740699e-01 -5.91790061e-01 2.60789476e-01
-7.16134270e-01 -5.23244666e-01 4.61916363e-01
5.21103463e-01 1.01507495e-01 8.47435782e-01
-8.10915543e-02 9.91829532e-01 9.84800802e-02
-1.56921402e-01 -4.39372797e-01 -8.84492640e-01
-3.22483901e-01 -4.98127458e-01 -8.04905696e-01
4.60335915e-01 6.33623801e-02 -8.85480696e-01
-1.04487876e-01 9.90716217e-01 -8.69692516e-02
-4.23882191e-01 -1.90379286e-01 8.85482698e-01
-4.65463665e-01 8.37416463e-01 -2.86491246e-01
-3.00683077e-01 -6.53825191e-01 -6.94335883e-01
7.40394954e-01 5.61451938e-01 -3.69576830e-01
-3.11361427e-02 8.16636065e-01 -5.76312478e-01
