4.22223929e-01 -9.04324633e-01 6.26423297e-02
-4.44128590e-01 2.07436631e-01 -8.71617869e-01
8.78628664e-01 -2.43051288e-02 4.76887931e-01
7.51659628e-01 6.24284715e-01 2.12783744e-01
-7.27381964e-01 3.43281697e-02 -6.85372438e-01
9.04120086e-01 1.74729706e-01 -3.89917233e-01
-9.39830600e-02 8.07260153e-01 -5.82663546e-01
2.24694371e-01 -7.04670605e-01 -6.73015698e-01
5.17593521e-01 -5.84329134e-02 8.53630265e-01
-1.38670197e-01 -3.13971110e-01 9.39252370e-01
-4.27769009e-01 6.72093392e-01 -6.04402740e-01
2.94585064e-01 8.87883287e-01 3.53388988e-01
-2.42047209e-01 8.95921880e-01 3.72475565e-01
4.19326931e-03 -1.88349929e-01 9.82094253e-01
-4.16918259e-01 8.67179955e-01 2.72357778e-01
1.56615168e-02 -6.93060324e-01 -7.20708221e-01
5.09056929e-02 6.63820205e-01 7.46158946e-01
9.79477603e-01 1.54947750e-01 1.28899709e-01
-5.23453434e-01 5.04662711e-01 -6.86520483e-01
-7.63921034e-01 -5.25063718e-01 3.75144854e-01
2.17672673e-01 -4.45930802e-01 8.68197240e-01
5.84011638e-01 -3.85635246e-01 7.14295184e-01
4.36657032e-01 -2.14179658e-02 -8.99371841e-01
2.74597401e-01 -9.44251439e-01 1.81620286e-01
-1.92480058e-01 -7.38104689e-01 6.46648648e-01
-9.68925117e-01 -1.13984654e-01 -2.19524665e-01
-6.02940093e-01 -7.74919018e-01 1.89642348e-01
6.67734090e-01 -7.23854517e-01 -1.73681884e-01
9.59889646e-01 -2.25890658e-01 1.66089385e-01
2.69850422e-01 -9.62282517e-01 -3.45401271e-02
-1.69503257e-01 -6.33652899e-01 -7.54818389e-01
-8.98226375e-02 3.62904824e-02 -9.95295163e-01
5.61322069e-01 -8.12876958e-01 1.55399368e-01
-9.46290078e-01 2.61324645e-01 -1.90378707e-01
-9.90462375e-01 1.36045043e-01 -2.18168732e-02
-2.48621094e-01 -8.33343764e-01 -4.93684628e-01
1.24002577e-01 -9.88594983e-01 8.54606666e-02
-7.66218206e-02 -3.43947733e-01 -9.35856166e-01
-3.46599609e-01 -5.52382595e-01 -7.58116300e-01
-1.24001452e-01 9.88594768e-01 8.54648248e-02
7.27390667e-01 -3.43235945e-02 -6.85363431e-01
8.94668187e-01 -4.09429702e-01 1.78708117e-01
7.38873794e-01 -5.04361679e-01 -4.46859843e-01
6.56096359e-01 3.35633980e-01 -6.75933242e-01
3.01207036e-01 -7.95592289e-01 -5.25648117e-01
-9.58497694e-02 -5.00022585e-01 8.60692941e-01
-9.75444010e-01 7.52149058e-02 -2.07005302e-01
7.60671637e-01 2.59827389e-01 5.94869603e-01
7.12681739e-01 7.00132790e-01 4.35766496e-02
-9.23889747e-01 1.29866837e-02 -3.82437113e-01
-7.76862577e-01 5.68711470e-01 -2.70279745e-01
-7.82184485e-01 -7.88032303e-02 6.18044491e-01
2.62979054e-01 -4.56334527e-01 -8.50058078e-01
-8.41933518e-01 -5.34978016e-01 7.03323815e-02
-7.26556610e-01 3.11949406e-01 6.12212837e-01
5.21481846e-02 -8.91215402e-01 4.50573827e-01
4.66477607e-01 6.27439146e-01 -6.23471923e-01
-7.92111612e-01 5.96224712e-01 1.30673669e-01
-9.70165260e-01 -2.36592875e-01 -5.29438251e-02
-9.63821925e-02 2.24231799e-01 -9.69756775e-01
3.28742835e-02 -9.49939780e-01 -3.10697496e-01
-4.66469902e-01 -6.27435707e-01 -6.23481144e-01
2.37118790e-01 -9.39221439e-01 -2.48268317e-01
-1.42047752e-01 -8.53904432e-01 5.00670428e-01
9.46794900e-02 -4.06398936e-01 -9.08775811e-01
-2.37253568e-01 -5.89018920e-01 7.72508474e-01
-8.34725903e-01 -3.51154740e-01 4.24174553e-01
-7.20166490e-01 2.22562458e-01 -6.57133604e-01
-9.59891887e-01 2.25889124e-01 1.66078521e-01
3.72713058e-01 8.64587641e-01 -3.37004994e-01
9.39905662e-02 -8.07255596e-01 -5.82668644e-01
6.37602157e-01 5.87776456e-01 4.97979463e-01
8.63143898e-01 4.43676929e-01 2.41109904e-01
-6.73938918e-01 4.18092676e-01 -6.09100453e-01
8.73235411e-01 1.66923229e-01 4.57818384e-01
1.06987117e-01 9.34988618e-01 3.38158056e-01
-2.71454381e-01 1.07374212e-01 -9.56441822e-01
8.37059201e-01 -1.30924748e-01 -5.31214934e-01
-8.01719425e-01 3.18193459e-01 -5.05962104e-01
-4.22223929e-01 9.04324633e-01 6.26423777e-02
2.71466282e-01 -1.07367312e-01 -9.56439219e-01
7.02298694e-01 6.57466205e-01 -2.72972651e-01
-9.32828942e-01 -3.46719115e-01 9.80625253e-02
-6.60002285e-01 -1.04432745e-02 7.51192225e-01
1.76111701e-01 1.24782798e-01 9.76430392e-01
-9.79479223e-01 -1.54949041e-01 1.28885847e-01
6.83088412e-01 -6.87848127e-01 2.45470516e-01
-7.99008643e-01 5.17486998e-01 3.06256667e-01
-4.91128776e-01 7.48226322e-01 -4.46036778e-01
2.01153068e-01 -8.13459760e-01 5.45730698e-01
3.85021785e-01 -8.01022361e-01 4.58391230e-01
-8.78634932e-01 2.43008857e-02 4.76876598e-01
-4.36645777e-01 2.14243795e-02 -8.99377153e-01
-4.18507263e-02 -8.80907194e-01 -4.71433852e-01
3.50150690e-01 -5.75213971e-01 -7.39270973e-01
3.87571183e-01 3.66442334e-01 -8.45876189e-01
-3.72217440e-01 -6.55321715e-01 6.57274092e-01
1.68327373e-01 -8.88845556e-01 -4.26167136e-01
-3.87561213e-01 -3.66436584e-01 -8.45883246e-01
-8.35097878e-01 -5.22615471e-02 -5.47612021e-01
-4.31844905e-01 3.90511435e-01 -8.13024484e-01
1.92471638e-01 7.38100505e-01 6.46655933e-01
-5.96903126e-01 5.97445840e-01 -5.35503332e-01
-4.30600007e-01 -7.60148937e-01 -4.86575826e-01
-5.17605076e-01 5.84278313e-02 8.53623606e-01
-5.95492934e-01 1.22175792e-01 -7.94014673e-01
-7.60679265e-01 -2.59832682e-01 5.94857534e-01
-9.24160292e-01 -2.58419457e-01 2.81332235e-01
-5.82058293e-01 -6.63571454e-02 -8.10433767e-01
-4.76572994e-01 -8.64166601e-01 -1.61535966e-01
9.98100991e-01 4.86839714e-02 -3.77384653e-02
7.04658643e-01 1.51562170e-01 -6.93169107e-01
-4.03425386e-01 9.02293275e-01 -1.52034322e-01
9.49272136e-01 -3.14408701e-01 -5.43747088e-03
-6.46103439e-01 -1.98138410e-01 7.37084336e-01
4.18293082e-01 -4.45609985e-01 7.91495150e-01
-8.73241243e-01 -1.66927364e-01 4.57805750e-01
-1.76125444e-01 -1.24788239e-01 9.76427217e-01
-5.23746278e-01 6.72306895e-01 5.23158252e-01
6.03216069e-01 3.76480064e-01 7.03132176e-01
-5.21534698e-02 8.91212820e-01 4.50578328e-01
8.99990431e-01 4.29232847e-01 -7.60013365e-02
-7.12681256e-01 -7.00134182e-01 4.35621142e-02
7.20174779e-01 -2.22558027e-01 -6.57126019e-01
3.24037728e-02 9.99378086e-01 -1.39070514e-02
-2.89438426e-01 5.86460473e-01 7.56499413e-01
-9.04115065e-01 -1.74727287e-01 -3.89929955e-01
4.76577042e-01 8.64166557e-01 -1.61524278e-01
8.34720486e-01 3.51150858e-01 4.24188431e-01
8.03623136e-01 2.30862115e-01 -5.48535504e-01
-9.08323839e-01 2.01972782e-01 -3.66270259e-01
3.39550199e-01 -3.08727872e-01 8.88479001e-01
-5.84021826e-01 3.85630719e-01 7.14289299e-01
2.48627942e-01 8.33346751e-01 -4.93676144e-01
7.66325993e-02 3.43954080e-01 -9.35852952e-01
-3.45408654e-01 7.05078168e-01 6.19321529e-01
3.53364832e-01 -1.28585672e-01 9.26607407e-01
9.08328567e-01 -2.01970278e-01 -3.66259915e-01
8.45066930e-01 -2.20992566e-01 4.86852503e-01
-4.11764552e-02 3.85533903e-01 9.21775658e-01
4.44139543e-01 -2.07430345e-01 -8.71613783e-01
-1.06990508e-01 -9.34991014e-01 3.38150349e-01
-8.74549555e-02 5.65548788e-01 8.20065977e-01
-3.85027521e-01 8.01020190e-01 4.58390213e-01
5.09432880e-01 1.32240198e-01 8.50289804e-01
4.30606504e-01 7.60151413e-01 -4.86566215e-01
7.26548074e-01 -3.11954045e-01 6.12220603e-01
-5.45568081e-01 -2.56369383e-01 -7.97889877e-01
7.92109690e-01 -5.96225951e-01 1.30679655e-01
-8.45073532e-01 2.20988471e-01 4.86842902e-01
8.91895400e-02 -9.57462856e-01 2.74428084e-01
3.89715179e-01 9.20909512e-01 6.91162168e-03
2.89427572e-01 -5.86464557e-01 7.56500398e-01
-9.26151134e-01 -3.03856855e-01 -2.23415622e-01
-4.18304514e-01 4.45605658e-01 7.91491546e-01
-8.56544288e-01 3.87171139e-01 -3.41217757e-01
-6.84197660e-01 7.28334824e-01 3.74438282e-02
9.24156744e-01 2.58416821e-01 2.81346313e-01
-7.74085868e-01 1.10306302e-01 6.23398038e-01
5.95502988e-01 -1.22170188e-01 -7.94007994e-01
-8.81470810e-01 4.41328129e-01 -1.68042505e-01
-1.06308027e-01 -9.77188408e-01 -1.83850392e-01
1.50525864e-01 -7.02400535e-01 6.95684663e-01
-7.02294550e-01 -6.57465191e-01 -2.72985747e-01
-9.49272145e-01 3.14408500e-01 -5.44762557e-03
-8.37052451e-01 1.30928118e-01 -5.31224739e-01
9.26154077e-01 3.03858160e-01 -2.23401653e-01
6.29917984e-01 6.93791581e-01 3.49080837e-01
5.23462049e-01 -5.04657550e-01 -6.86517706e-01
2.14883194e-01 9.76634708e-01 -3.13954616e-03
7.36894857e-01 5.39785912e-01 -4.06959636e-01
-6.46404013e-01 6.71528590e-01 -3.62229652e-01
9.23894658e-01 -1.29842056e-02 -3.82425335e-01
1.42041939e-01 8.53900963e-01 5.00678000e-01
1.80127852e-01 -6.24571209e-02 9.81659546e-01
4.14679352e-01 1.67604494e-01 -8.94397888e-01
4.73516338e-01 3.15168948e-01 8.22467522e-01
9.75446679e-01 -7.52134933e-02 -2.06993237e-01
8.81472961e-01 -4.41327030e-01 -1.68034103e-01
4.36901061e-01 8.79695561e-01 1.87759538e-01
5.02912264e-01 -2.49957612e-01 8.27407076e-01
-6.41732302e-01 -7.55711491e-01 -1.30688456e-01
-5.02923942e-01 2.49952696e-01 8.27401464e-01
-2.58386076e-01 -7.69364175e-02 -9.62971998e-01
-4.80196249e-01 5.67428224e-01 6.68908372e-01
-5.47309667e-01 -7.75838501e-01 -3.13888480e-01
7.82176479e-01 7.87978809e-02 6.18055307e-01
3.72209019e-01 6.55317057e-01 6.57283508e-01
-3.89713033e-01 -9.20910499e-01 6.90063624e-03
-7.51661803e-01 -6.24287149e-01 2.12768905e-01
6.41735332e-01 7.55711233e-01 -1.30675092e-01
-7.45659784e-01 -4.03760628e-01 -5.30063717e-01
3.27953863e-01 2.38707931e-01 9.14038852e-01
1.80239878e-01 9.21508460e-01 -3.43998411e-01
-3.25799113e-01 -7.93561824e-01 5.13922002e-01
-2.73948910e-01 2.85693764e-01 -9.18329365e-01
-1.75834100e-01 2.51082261e-01 9.51862593e-01
4.80186702e-01 -5.67431920e-01 6.68912087e-01
5.44154375e-03 -7.92039699e-01 6.10446553e-01
-2.94588781e-01 -8.87886119e-01 3.53378763e-01
6.59992320e-01 1.04377584e-02 7.51201057e-01
-2.24685992e-01 7.04675917e-01 -6.73012937e-01
-5.55542710e-01 -8.31255439e-01 1.96656112e-02
7.84412598e-01 -6.14671433e-01 -8.29198492e-02
2.78464011e-01 4.16404836e-01 8.65486525e-01
-8.99989236e-01 -4.29232756e-01 -7.60159703e-02
-5.36844099e-01 -5.44183183e-01 6.44720599e-01
-5.84790546e-01 3.11608360e-01 -7.48944869e-01
6.16530558e-01 5.24787375e-01 -5.86930020e-01
7.77100243e-01 -4.21821136e-01 4.67100934e-01
2.97856292e-01 9.38141363e-01 -1.76555893e-01
-5.61323696e-01 8.12876278e-01 1.55397065e-01
8.84616815e-01 -3.21286323e-01 3.37977833e-01
5.96910124e-01 -5.97441704e-01 -5.35500143e-01
9.48823168e-01 6.60477344e-02 3.08825270e-01
-1.12506692e-01 -7.78359994e-01 -6.17653989e-01
9.90462625e-01 -1.36045120e-01 -2.18050329e-02
5.27335470e-01 -8.08058071e-01 -2.62600097e-01
-6.56087914e-01 -3.35629698e-01 -6.75943563e-01
8.56548753e-01 -3.87168728e-01 -3.41209282e-01
2.37242860e-01 5.89014267e-01 7.72515314e-01
-2.14880479e-01 -9.76635272e-01 -3.14877223e-03
4.03427798e-01 -9.02291952e-01 -1.52035753e-01
-9.46689420e-02 4.06405402e-01 -9.08774020e-01
-1.05163332e-01 9.85493572e-01 -1.33201993e-01
5.82068380e-01 6.63628137e-02 -8.10426059e-01
-3.39562948e-01 3.08723112e-01 8.88475783e-01
9.36121871e-01 -1.28662241e-01 3.27295998e-01
-3.94628035e-02 -5.31035066e-01 -8.46429190e-01
7.76866080e-01 -5.68709577e-01 -2.70273654e-01
-2.74598295e-01 9.44250884e-01 1.81621835e-01
2.59730683e-01 9.48721155e-01 1.80190415e-01
6.46408759e-01 -6.71525894e-01 -3.62226177e-01
-3.28687835e-02 9.49941995e-01 -3.10691313e-01
-8.03616149e-01 -2.30858841e-01 -5.48547116e-01
9.32827803e-01 3.46717997e-01 9.80773260e-02
6.84196979e-01 -7.28335270e-01 3.74475396e-02
-1.50535715e-01 7.02396853e-01 6.95686254e-01
1.05167271e-01 -9.85492434e-01 -1.33207276e-01
-4.91030109e-01 -7.03596898e-01 5.13655615e-01
-8.91916963e-02 9.57461448e-01 2.74432308e-01
6.46093736e-01 1.98132765e-01 7.37094359e-01
-6.67732019e-01 7.23855608e-01 -1.73685309e-01
-8.84621388e-01 3.21283478e-01 3.37968570e-01
-7.19251415e-02 -9.83567668e-01 1.65595343e-01
2.73960267e-01 -2.85686930e-01 -9.18328103e-01
-3.01200070e-01 7.95596673e-01 -5.25645479e-01
-7.36889526e-01 -5.39783680e-01 -4.06972245e-01
-6.83091577e-01 6.87846604e-01 2.45465984e-01
1.06312649e-01 9.77189374e-01 -1.83842602e-01
2.97796142e-01 7.11552666e-01 -6.36402944e-01
-1.56528795e-02 6.93065679e-01 -7.20703262e-01
7.99004517e-01 -5.17489342e-01 3.06263465e-01
-5.09927591e-01 -4.53188985e-01 -7.31157853e-01
-2.97851673e-01 -9.38140985e-01 -1.76565674e-01
8.18120974e-02 1.55438000e-01 -9.84450813e-01
-6.41540073e-01 5.04303104e-01 5.78019142e-01
9.58373619e-02 5.00017895e-01 8.60697049e-01
-6.37608392e-01 -5.87781035e-01 4.97966073e-01
-1.80233671e-01 -9.21506482e-01 -3.44006952e-01
2.42043212e-01 -8.95923588e-01 3.72474048e-01
-4.20729388e-03 1.88344406e-01 9.82095253e-01
4.11631748e-02 -3.85538831e-01 9.21774189e-01
-5.53417490e-01 8.31024283e-01 -5.59248557e-02
1.12514459e-01 7.78364269e-01 -6.17647192e-01
7.74077424e-01 -1.10311529e-01 6.23407598e-01
-7.77106612e-01 4.21817636e-01 4.67093501e-01
4.91134730e-01 -7.48222579e-01 -4.46036497e-01
5.45577792e-01 2.56374800e-01 -7.97881498e-01
-9.98100492e-01 -4.86838897e-02 -3.77517269e-02
4.27776756e-01 -6.72088415e-01 -6.04402787e-01
-3.64227702e-01 8.60740818e-01 -3.55615745e-01
-2.01160303e-01 8.13456959e-01 5.45732210e-01
4.70174087e-01 8.07473562e-01 3.56263455e-01
1.69512082e-01 6.33658059e-01 -7.54812080e-01
8.50961144e-01 3.59230620e-01 -3.83167794e-01
5.48738018e-01 -7.56883242e-01 3.54986212e-01
3.45400061e-01 -7.05081433e-01 6.19322600e-01
-8.63146834e-01 -4.43679361e-01 2.41094909e-01
3.46608424e-01 5.52387391e-01 -7.58108778e-01
6.75501214e-01 -6.04907622e-01 4.21646662e-01
-5.44972928e-03 7.92036207e-01 6.10451016e-01
-3.50141700e-01 5.75219805e-01 -7.39270694e-01
-5.27332044e-01 8.08060119e-01 -2.62600685e-01
3.25793292e-01 7.93557902e-01 5.13931753e-01
4.16915634e-01 -8.67180967e-01 2.72358565e-01
2.48055520e-01 2.67321228e-01 -9.31131325e-01
5.93931791e-01 6.62479668e-01 -4.56469718e-01
8.41933091e-01 5.34976710e-01 7.03474579e-02
6.73946649e-01 -4.18088331e-01 -6.09094878e-01
-7.04649966e-01 -1.51557610e-01 -6.93178924e-01
-5.48742304e-01 7.56881621e-01 3.54983052e-01
-5.09161500e-02 -6.63824362e-01 7.46154531e-01
8.35104881e-01 5.22648835e-02 -5.47601024e-01
9.68927959e-01 1.13986119e-01 -2.19511366e-01
4.18575975e-02 8.80910540e-01 -4.71426996e-01
7.11178717e-01 4.30198113e-01 5.56017785e-01
-4.36902065e-01 -8.79697537e-01 1.87747927e-01
5.53418166e-01 -8.31023917e-01 -5.59235604e-02
-7.88328825e-01 -6.06667118e-01 -1.02432508e-01
7.45666635e-01 4.03763619e-01 -5.30051804e-01
4.91024100e-01 7.03592695e-01 5.13667121e-01
-4.14668517e-01 -1.67598191e-01 -8.94404092e-01
9.63940204e-02 -2.24225197e-01 -9.69757125e-01
9.88167145e-01 -3.68331187e-02 1.48893850e-01
8.34890979e-01 4.92759796e-01 -2.45243222e-01
-9.36126210e-01 1.28659340e-01 3.27284728e-01
-2.97788273e-01 -7.11548749e-01 -6.36411002e-01
5.47314740e-01 7.75839623e-01 -3.13876871e-01
-8.50956149e-01 -3.59228455e-01 -3.83180912e-01
-2.37114516e-01 9.39223613e-01 -2.48264187e-01
8.01725870e-01 -3.18190120e-01 -5.05953988e-01
2.16686528e-01 4.58939595e-01 -8.61637564e-01
6.02938696e-01 7.74916738e-01 1.89656120e-01
9.46292546e-01 -2.61323340e-01 -1.90368232e-01
3.64232697e-01 -8.60737749e-01 -3.55618050e-01
-1.40848197e-01 5.84897406e-01 -7.98783361e-01
-6.03225514e-01 -3.76485642e-01 7.03121083e-01
-2.17685143e-01 4.45926173e-01 8.68196493e-01
-2.69848442e-01 9.62283171e-01 -3.45374539e-02
-3.53377462e-01 1.28580663e-01 9.26603285e-01
-8.75335006e-01 4.83391167e-01 1.10288297e-02
-7.84411693e-01 6.14671813e-01 -8.29256088e-02
5.23739239e-01 -6.72309600e-01 5.23161818e-01
7.63916338e-01 5.25060197e-01 3.75159349e-01
-7.11185895e-01 -4.30203152e-01 5.56004702e-01
5.84799867e-01 -3.11603031e-01 -7.48939807e-01
-2.48044561e-01 -2.67314724e-01 -9.31136110e-01
-3.54802884e-01 -5.45369976e-02 9.33350369e-01
-9.88169082e-01 3.68316697e-02 1.48881353e-01
-2.59731099e-01 -9.48722924e-01 1.80180481e-01
1.38656506e-01 3.13965820e-01 9.39256160e-01
-3.72707196e-01 -8.64586286e-01 -3.37014946e-01
-8.94670666e-01 4.09428091e-01 1.78699398e-01
3.94725607e-02 5.31041026e-01 -8.46424998e-01
7.88330822e-01 6.06666962e-01 -1.02418087e-01
-2.16676747e-01 -4.58933778e-01 -8.61643120e-01
5.55544233e-01 8.31254117e-01 1.96786536e-02
8.98348756e-02 -3.62838516e-02 -9.95294300e-01
-6.48161854e-01 1.84337096e-01 7.38855773e-01
5.36835538e-01 5.44177962e-01 6.44732138e-01
-4.70177929e-01 -8.07476534e-01 3.56251639e-01
-8.18001199e-02 -1.55431451e-01 -9.84452841e-01
3.54790062e-01 5.45318657e-02 9.33355543e-01
1.40857739e-01 -5.84891411e-01 -7.98786066e-01
-1.80141231e-01 6.24516900e-02 9.81657437e-01
-7.38867969e-01 5.04364876e-01 -4.46865869e-01
6.48151598e-01 -1.84342353e-01 7.38863458e-01
-6.75506793e-01 6.04905094e-01 4.21641356e-01
2.58397892e-01 7.69431900e-02 -9.62968286e-01
1.75820534e-01 -2.51087343e-01 9.51863758e-01
4.31854828e-01 -3.90505512e-01 -8.13022056e-01
8.74431565e-02 -5.65553123e-01 8.20064243e-01
7.19251904e-02 9.83566426e-01 1.65602723e-01
-4.73527840e-01 -3.15174322e-01 8.22458839e-01
5.09936485e-01 4.53193600e-01 -7.31148792e-01
6.41532000e-01 -5.04306786e-01 5.78024888e-01
-3.24007791e-02 -9.99378083e-01 -1.39139887e-02
-3.27966898e-01 -2.38713143e-01 9.14032813e-01
9.70166006e-01 2.36593019e-01 -5.29295390e-02
-5.93925805e-01 -6.62477261e-01 -4.56480993e-01
-5.09444405e-01 -1.32245469e-01 8.50282079e-01
8.75334698e-01 -4.83391541e-01 1.10367845e-02
-9.48827132e-01 -6.60505877e-02 3.08812480e-01
-6.82683807e-06 -2.85669212e-06 1.00000122e+00
-4.15527330e-01 -4.88136124e-01 7.67503770e-01
-1.68321318e-01 8.88849032e-01 -4.26162285e-01
-6.29921919e-01 -6.93794942e-01 3.49067050e-01
-2.78476634e-01 -4.16409971e-01 8.65479991e-01
4.15516510e-01 4.88130893e-01 7.67512957e-01
-2.62969006e-01 4.56341059e-01 -8.50057682e-01
-8.34887608e-01 -4.92758621e-01 -2.45257052e-01
-6.16523082e-01 -5.24783985e-01 -5.86940902e-01
