-1.31619500e-01 9.07525301e-01 3.98841012e-01
-6.81994405e-01 -7.31279721e-01 -1.06576430e-02
-4.53241001e-01 -4.42285096e-01 7.73922802e-01
7.08230088e-01 -6.80180766e-01 -1.89114430e-01
-5.22747450e-01 -6.41845901e-01 -5.61042702e-01
7.47614349e-01 -3.31034980e-01 5.75750513e-01
-1.47197433e-01 9.89049676e-01 1.06611413e-02
5.31111912e-01 -2.62458908e-01 8.05627388e-01
-6.76322238e-01 -5.57866860e-01 4.81012264e-01
2.80549595e-01 -9.13240505e-01 -2.95438138e-01
4.93623079e-01 -5.86344205e-01 -6.42290210e-01
7.79486026e-01 -4.53072560e-01 -4.32581538e-01
-6.15695745e-01 -3.30970462e-01 7.15106504e-01
-3.41276819e-01 -7.30851215e-01 -5.91089339e-01
3.89158324e-01 -7.11801632e-01 5.84717242e-01
-4.75462794e-01 -5.81728443e-02 8.77810384e-01
8.60199994e-01 4.67839505e-01 2.02933956e-01
-4.30756914e-01 1.18647290e-01 8.94634743e-01
9.92091224e-03 9.58263235e-01 2.85715181e-01
-5.38126781e-01 -8.39749137e-01 7.23943511e-02
-3.63545571e-01 3.09531018e-01 8.78649640e-01
-5.86304453e-01 8.49103220e-02 -8.05628508e-01
-5.35113421e-01 -7.94998529e-01 -2.85711294e-01
7.39052655e-01 2.03141901e-01 6.42288544e-01
-4.93624546e-01 5.86344039e-01 -6.42289229e-01
3.41277033e-01 7.30850831e-01 -5.91089707e-01
4.90274674e-05 -7.13152300e-01 7.01009137e-01
-4.43349769e-01 8.73074289e-01 -2.02934131e-01
8.62976817e-01 -2.58944583e-01 4.33841838e-01
6.08218060e-01 6.99110128e-01 3.75920000e-01
2.12290717e-01 6.70053845e-01 -7.11308993e-01
1.77616430e-01 2.27769399e-01 9.57378471e-01
-3.82609379e-01 -8.87493820e-01 -2.56836064e-01
-3.28103805e-02 -9.96836576e-01 -7.23899842e-02
-9.92093599e-03 -9.58263228e-01 2.85715177e-01
6.61418072e-01 -5.12979688e-01 5.47154454e-01
2.55618760e-01 -4.92820641e-01 -8.31737242e-01
-5.74856447e-01 -5.06637305e-01 6.42540826e-01
5.99456629e-01 -4.12259995e-01 -6.86071011e-01
-7.39052684e-01 -2.03140988e-01 6.42288779e-01
3.65448798e-02 9.66309794e-01 -2.54774121e-01
7.27338779e-02 5.77877183e-01 8.12876235e-01
9.68478324e-01 -2.31840983e-01 9.11016423e-02
-1.31163595e-01 6.04391640e-01 7.85816061e-01
-6.18299181e-01 -1.17502524e-01 -7.77109546e-01
-1.39199172e-01 -4.44810638e-02 -9.89264875e-01
-5.29537481e-01 2.79586323e-01 -8.00887953e-01
8.94460828e-02 6.87122621e-02 9.93618667e-01
-6.11311136e-01 -3.09402883e-01 -7.28401344e-01
-9.45563821e-01 1.83762835e-01 2.68589420e-01
-2.55619560e-01 4.92821343e-01 -8.31736581e-01
8.42755600e-01 -5.29966877e-01 -9.43298184e-02
5.38127244e-01 8.39748952e-01 7.23932589e-02
-1.33226060e-01 -7.95525523e-01 5.91092184e-01
-7.94471356e-01 -5.97779676e-01 -1.07120050e-01
5.29537237e-01 -2.79586193e-01 -8.00888167e-01
2.05010276e-01 6.72315527e-01 7.11310515e-01
-5.52875654e-01 6.73918019e-01 4.90064308e-01
3.47263271e-02 -1.07312520e-01 -9.93618677e-01
-3.52611566e-01 -8.88164389e-01 2.94667778e-01
7.96017571e-01 -5.42739590e-01 -2.67936121e-01
9.45563484e-01 -1.83762943e-01 2.68590581e-01
-8.10499902e-01 -4.17798427e-01 -4.10529361e-01
-7.91728587e-01 4.38187564e-01 4.25626018e-01
4.57625681e-01 -8.63818538e-01 2.10704239e-01
6.81994825e-01 7.31279341e-01 -1.06583124e-02
9.68219898e-01 1.55836661e-01 -1.95614861e-01
9.17577664e-01 1.08998635e-01 -3.82322548e-01
3.15413371e-01 3.58675779e-01 8.78559118e-01
1.85263460e-01 -3.43233600e-01 -9.20797545e-01
1.40867550e-02 7.23649961e-01 -6.90023392e-01
-1.57794265e-01 9.66502268e-01 2.02421211e-01
1.73632924e-01 -3.20034664e-01 9.31358926e-01
-7.88944491e-01 -6.07180168e-01 9.43335603e-02
-9.68219283e-01 -1.55839221e-01 -1.95615785e-01
7.21683070e-01 -6.92186453e-01 -7.17402810e-03
-5.16196828e-01 -6.58235527e-01 5.47966084e-01
-4.30784172e-01 8.03672611e-01 4.10530562e-01
-7.47615073e-01 3.31035363e-01 5.75749337e-01
2.67711858e-01 5.17266166e-01 -8.12875180e-01
9.40219292e-01 -2.12787875e-01 -2.65911654e-01
-4.14616733e-01 8.19386785e-01 -3.95851296e-01
1.39199760e-01 4.44825468e-02 -9.89264728e-01
-8.03527998e-01 1.51166211e-01 -5.75752990e-01
5.80140426e-01 -7.54280149e-01 3.07406172e-01
1.31619500e-01 -9.07525301e-01 3.98841001e-01
-6.61418905e-01 5.12978947e-01 5.47154130e-01
4.14615861e-01 -8.19387176e-01 -3.95851402e-01
-9.40219955e-01 2.12785273e-01 -2.65911345e-01
-5.33801444e-01 6.92258926e-01 -4.85626997e-01
4.53241169e-01 4.42285884e-01 7.73922266e-01
-2.13881818e-01 -9.69824591e-01 -1.17024859e-01
-9.86922745e-01 -1.61034245e-01 7.17301362e-03
-2.05010255e-01 -6.72315015e-01 7.11310994e-01
-3.06373768e-01 1.63300684e-02 -9.51771196e-01
6.47831120e-01 -5.29832435e-01 -5.47350363e-01
4.42710235e-01 -4.47335999e-01 7.77108859e-01
-5.77165783e-01 -4.85309185e-01 -6.56775930e-01
3.82609796e-01 8.87493358e-01 -2.56837083e-01
7.88944882e-01 6.07179784e-01 9.43329301e-02
3.05655558e-01 -9.47457829e-01 -9.43310031e-02
-6.76437256e-01 6.27658189e-01 -3.85328197e-01
-8.66710685e-01 -4.52124817e-01 -2.10702911e-01
7.40412625e-01 -3.42597586e-01 -5.78287152e-01
-7.08230750e-01 6.80179862e-01 -1.89115170e-01
9.69034688e-01 1.58769899e-01 1.89113495e-01
3.28106108e-02 9.96836564e-01 -7.23901452e-02
-9.94687073e-01 4.12398395e-02 9.43233259e-02
-9.13068413e-01 -1.33528477e-01 3.85326117e-01
2.98572914e-03 2.76256626e-01 9.61079285e-01
5.35113858e-01 7.94997928e-01 -2.85712196e-01
-9.42847072e-01 -3.17461713e-01 -1.01279024e-01
1.86299502e-01 -7.43259563e-01 -6.42540034e-01
7.59778172e-01 5.70886829e-01 -3.11167743e-01
-4.04360763e-01 -5.87435945e-01 -7.01007384e-01
1.87986889e-01 9.47994815e-01 2.56839983e-01
-8.04155058e-01 1.37560939e-01 5.78283354e-01
-2.40838976e-01 8.42986087e-01 -4.81010429e-01
-9.00616324e-01 8.79095010e-02 -4.25631451e-01
-4.92512910e-05 7.13152613e-01 7.01008826e-01
-4.74958937e-01 -4.88665597e-02 -8.78650120e-01
-5.96688437e-01 7.96056209e-01 1.01278923e-01
8.98975234e-01 -6.87105494e-02 4.32576485e-01
-5.80139574e-01 7.54280264e-01 3.07407489e-01
5.96689584e-01 -7.96055379e-01 1.01278724e-01
9.03704095e-01 3.06316398e-01 2.99147452e-01
-1.77615929e-01 -2.27768643e-01 9.57378740e-01
6.20245520e-01 1.32121936e-01 7.73200700e-01
6.22942448e-01 6.72956692e-01 -3.98838311e-01
2.13079472e-01 9.31541909e-01 -2.94663897e-01
2.62154105e-01 -8.24681237e-01 5.01174716e-01
8.83092543e-01 -3.84712811e-01 -2.68595638e-01
-8.37508367e-01 -2.41694139e-01 -4.90064945e-01
4.43349966e-01 -8.73074264e-01 -2.02933813e-01
-3.47207806e-01 -1.77704048e-01 9.20797498e-01
6.80826766e-01 -2.06104544e-01 7.02848392e-01
2.81083342e-01 8.50064475e-01 -4.45401550e-01
-5.17744111e-01 -8.16718547e-01 2.54778029e-01
-1.87987040e-01 -9.47994619e-01 2.56840561e-01
-1.51150366e-01 -7.99011315e-01 -5.82008986e-01
-4.50704517e-01 -4.23508592e-01 -7.85815422e-01
-4.22103566e-01 1.46480359e-01 -8.94635150e-01
6.18299290e-01 1.17502849e-01 -7.77109423e-01
-2.81083106e-01 -8.50064818e-01 -4.45401020e-01
4.36021128e-01 -4.60482878e-01 -7.73201834e-01
-2.06178372e-01 -9.76180124e-01 6.75487702e-02
-8.06092656e-01 -4.39904297e-01 3.95852037e-01
-5.42765089e-01 -8.32787910e-01 -1.08951079e-01
-7.24123925e-01 -3.65719150e-01 -5.84717037e-01
4.74958937e-01 4.88672218e-02 -8.78650092e-01
5.17744206e-01 8.16718840e-01 2.54776950e-01
4.30757634e-01 -1.18647163e-01 8.94634419e-01
4.60212210e-01 -8.87802620e-01 3.35125838e-03
-4.57625130e-01 8.63818736e-01 2.10704619e-01
5.52874992e-01 -6.73918846e-01 4.90063925e-01
9.05530072e-01 2.92432150e-01 -3.07406460e-01
-3.70385402e-01 7.33377535e-01 -5.70063179e-01
3.52611481e-01 8.88164863e-01 2.94666491e-01
-3.58682456e-01 3.17483316e-01 -8.77810464e-01
-8.60199571e-01 -4.67839852e-01 2.02934869e-01
-9.69034801e-01 -1.58769539e-01 1.89113133e-01
2.13848156e-01 -1.70068241e-01 -9.61948924e-01
3.83603574e-01 9.21024392e-01 -6.75453724e-02
4.04361296e-01 5.87435820e-01 -7.01007196e-01
3.47208188e-01 1.77704695e-01 9.20797236e-01
1.31534803e-01 4.13499257e-01 9.00953380e-01
6.06281511e-01 -3.96153606e-01 6.89554259e-01
-8.98975439e-01 6.87109212e-02 4.32575970e-01
-7.79487726e-01 4.53071540e-01 -4.32579523e-01
-8.33556701e-02 -8.96860574e-01 -4.34387986e-01
2.00299137e-01 -7.26996690e-01 6.56777045e-01
-1.31534432e-01 -4.13498524e-01 9.00953764e-01
1.04660901e-01 -9.20723505e-01 -3.75917952e-01
9.29227956e-01 -3.58099033e-01 -9.11070590e-02
-1.73632515e-01 3.20035179e-01 9.31358825e-01
5.94720583e-01 -6.99102813e-02 8.00887016e-01
5.33799415e-01 -6.92259846e-01 -4.85627922e-01
-4.89971766e-01 -2.61038547e-01 8.31737074e-01
-2.72577436e-01 -1.88535943e-02 9.61949119e-01
5.64710054e-02 -4.74283315e-01 -8.78559238e-01
-3.47258271e-02 1.07314138e-01 -9.93618520e-01
3.02206828e-01 -9.01023977e-01 3.11170103e-01
-9.09377180e-01 4.07062239e-01 8.56356795e-02
-7.48864503e-01 -5.93225937e-01 2.95440243e-01
8.04154832e-01 -1.37560485e-01 5.78283794e-01
4.30784559e-01 -8.03672777e-01 4.10529832e-01
-7.09221661e-01 6.77303507e-01 1.95613382e-01
1.31163442e-01 -6.04391460e-01 7.85816223e-01
2.72578113e-01 1.88540190e-02 9.61948923e-01
-3.73654075e-01 -9.20155823e-01 1.17029417e-01
-7.21681241e-01 6.92188338e-01 -7.17527968e-03
8.34042669e-01 6.91616318e-02 5.47347719e-01
2.67251439e-01 5.24973247e-01 8.08071649e-01
-9.68477939e-01 2.31842864e-01 9.11008105e-02
2.61636870e-01 -1.60246187e-01 9.51770633e-01
-7.74844649e-02 -5.83966735e-01 -8.08071148e-01
-8.35676831e-01 -4.75809817e-02 -5.47156518e-01
-5.64717942e-02 4.74284413e-01 -8.78558597e-01
-1.71784014e-02 2.88326103e-01 -9.57378156e-01
-6.94062990e-01 6.10006214e-01 3.82320535e-01
-3.98668207e-01 -6.04093260e-01 6.90025365e-01
-8.34042691e-01 -6.91608464e-02 5.47347760e-01
8.35677273e-01 4.75804595e-02 -5.47155912e-01
-6.06282071e-01 3.96152981e-01 6.89554117e-01
8.37509094e-01 2.41693135e-01 -4.90064225e-01
6.67231650e-02 -8.25091793e-01 5.61045064e-01
7.94471803e-01 5.97779036e-01 -1.07120452e-01
-9.05529197e-01 -2.92433851e-01 -3.07407371e-01
-3.15538552e-01 9.42846838e-01 1.07122674e-01
-7.40413389e-01 3.42597523e-01 -5.78286196e-01
7.09223327e-01 -6.77301966e-01 1.95612709e-01
7.48864787e-01 5.93226023e-01 2.95439402e-01
-6.08217997e-01 -6.99109638e-01 3.75920974e-01
-1.54163793e-01 -2.29259603e-01 -9.61079355e-01
-1.38063765e-01 9.73528004e-01 -1.82158232e-01
-6.65670841e-01 -7.23670896e-01 1.82161346e-01
9.86923136e-01 1.61031956e-01 7.17276662e-03
9.79884590e-01 -1.80255103e-01 -8.56405223e-02
-3.89158899e-01 7.11801170e-01 5.84717421e-01
-3.05655117e-01 9.47457943e-01 -9.43313081e-02
-3.28156786e-01 6.01451955e-01 7.28401463e-01
9.42847655e-01 3.17460032e-01 -1.01279024e-01
1.47197747e-01 -9.89049622e-01 1.06613713e-02
-7.59777453e-01 -5.70887766e-01 -3.11167729e-01
8.82440063e-01 4.70412931e-01 -3.35059714e-03
3.28156295e-01 -6.01452195e-01 7.28401486e-01
-8.83094161e-01 3.84710307e-01 -2.68593864e-01
-6.20245416e-01 -1.32121148e-01 7.73200905e-01
-5.70762542e-01 7.64683267e-01 -2.99148138e-01
-9.03704160e-01 -3.06315903e-01 2.99147708e-01
8.57686226e-01 -2.75957149e-01 -4.33845581e-01
2.40838279e-01 -8.42986122e-01 -4.81010712e-01
-3.24473422e-01 -1.65189720e-01 -9.31358857e-01
-5.89299166e-01 8.01502948e-01 -1.01584993e-01
-3.15412944e-01 -3.58675129e-01 8.78559529e-01
-8.57686913e-01 2.75956119e-01 -4.33844853e-01
9.13068363e-01 1.33528889e-01 3.85326130e-01
-7.24023571e-01 1.73956058e-02 -6.89555821e-01
1.38064097e-01 -9.73528018e-01 -1.82157878e-01
-5.58781286e-02 4.59362631e-01 8.86489502e-01
2.50399334e-01 8.59601962e-01 4.45403933e-01
4.77588881e-01 2.42848022e-01 -8.44354003e-01
-2.80549669e-01 9.13240403e-01 -2.95438391e-01
2.50428528e-02 9.93731163e-01 1.08955234e-01
6.94062266e-01 -6.10006840e-01 3.82320864e-01
-7.20894374e-01 -3.94130076e-01 5.70063846e-01
-6.22941690e-01 -6.72957518e-01 -3.98838066e-01
9.96744991e-01 7.42450940e-04 -8.06156529e-02
5.22748279e-01 6.41845234e-01 -5.61042715e-01
8.94491643e-02 -1.15560647e-01 9.89264683e-01
-7.40551680e-01 -1.80789429e-01 -6.47223578e-01
-2.00299604e-01 7.26996539e-01 6.56777072e-01
-2.67251258e-01 -5.24972620e-01 8.08072107e-01
-9.65491712e-01 3.04794806e-02 -2.58644028e-01
-2.55735075e-01 4.70814061e-01 8.44354023e-01
8.66711323e-01 4.52123646e-01 -2.10702874e-01
-9.79885346e-01 1.80250991e-01 -8.56403678e-02
1.54163539e-01 2.29261250e-01 -9.61079007e-01
9.39848940e-01 3.26136212e-01 1.01583264e-01
1.71780467e-02 -2.88324450e-01 -9.57378658e-01
-5.94720304e-01 6.99110270e-02 8.00887148e-01
5.86304527e-01 -8.49097744e-02 -8.05628523e-01
-8.94452611e-02 -6.87116068e-02 9.93618784e-01
4.22103905e-01 -1.46479927e-01 -8.94635067e-01
8.10500855e-01 4.17797113e-01 -4.10528853e-01
-4.60211676e-01 8.87802897e-01 3.35101551e-03
-3.06464451e-01 -3.46722133e-01 -8.86489294e-01
4.89972089e-01 2.61039235e-01 8.31736679e-01
7.74838713e-02 5.83967510e-01 -8.08070652e-01
3.63545857e-01 -3.09530982e-01 8.78649538e-01
4.39809212e-01 7.86048869e-01 4.34390444e-01
5.42765481e-01 8.32787541e-01 -1.08952072e-01
5.74856374e-01 5.06638314e-01 6.42540115e-01
8.20651195e-01 -5.65715116e-01 8.06103888e-02
-5.07536916e-01 5.68778407e-01 6.47222851e-01
-8.12609471e-01 5.22276853e-01 2.58636299e-01
3.73654626e-01 9.20155778e-01 1.17028119e-01
-2.67711731e-01 -5.17265550e-01 -8.12875604e-01
-6.83500972e-01 -5.30708783e-01 -5.01173204e-01
-5.31111752e-01 2.62458823e-01 8.05627514e-01
3.19535104e-01 -6.21706972e-01 -7.15106801e-01
-1.26080877e-01 -4.15194790e-01 -9.00953310e-01
6.76322098e-01 5.57867686e-01 4.81011530e-01
3.06374115e-01 -1.63296461e-02 -9.51771097e-01
4.48754912e-01 7.76548361e-01 -4.42257470e-01
2.13881964e-01 9.69824521e-01 -1.17025259e-01
-6.77682473e-01 2.16213157e-01 -7.02850131e-01
1.22603723e-01 -6.21299031e-01 -7.73922357e-01
6.83501992e-01 5.30707726e-01 -5.01172960e-01
-8.42757169e-01 5.29964585e-01 -9.43285788e-02
-6.47832788e-01 5.29831371e-01 -5.47349409e-01
8.12609030e-01 -5.22275834e-01 2.58639775e-01
-7.27536139e-01 2.62357598e-04 6.86069317e-01
8.95148786e-01 -3.57773680e-01 2.65907246e-01
-4.39809256e-01 -7.86048176e-01 4.34391626e-01
1.57794444e-01 -9.66502206e-01 2.02421344e-01
8.06092598e-01 4.39904932e-01 3.95851490e-01
-8.20648737e-01 5.65718923e-01 8.06085843e-02
6.76434996e-01 -6.27659978e-01 -3.85329266e-01
3.24473082e-01 1.65190372e-01 -9.31358866e-01
9.65491649e-01 -3.04820522e-02 -2.58644017e-01
-7.27338276e-02 -5.77876611e-01 8.12876640e-01
6.77940788e-01 7.06698753e-01 -2.02418306e-01
-4.77589037e-01 -2.42847656e-01 -8.44354009e-01
3.06464388e-01 3.46722887e-01 -8.86489029e-01
5.20310985e-02 -8.34882325e-01 -5.47963727e-01
-5.99457249e-01 4.12259855e-01 -6.86070545e-01
7.27536258e-01 -2.61569877e-04 6.86069207e-01
-4.36021844e-01 4.60483309e-01 -7.73201169e-01
-8.62977134e-01 2.58944719e-01 4.33841101e-01
3.15538901e-01 -9.42846704e-01 1.07122808e-01
9.63429376e-01 -4.22164905e-03 2.67929166e-01
-2.62154057e-01 8.24681095e-01 5.01174978e-01
-9.39848501e-01 -3.26137162e-01 1.01584124e-01
-1.04660875e-01 9.20723489e-01 -3.75918012e-01
-2.12290945e-01 -6.70053646e-01 -7.11309100e-01
-2.61636059e-01 1.60246580e-01 9.51770787e-01
-1.40874709e-02 -7.23649579e-01 -6.90023770e-01
-7.96020017e-01 5.42737438e-01 -2.67933182e-01
-1.22604796e-01 6.21299792e-01 -7.73921580e-01
-9.96745003e-01 -7.46428562e-04 -8.06152928e-02
8.32196872e-01 2.67611121e-01 4.85626074e-01
-6.77940341e-01 -7.06699304e-01 -2.02417801e-01
-1.85264093e-01 3.43234408e-01 -9.20797116e-01
-5.20315284e-02 8.34882451e-01 -5.47963504e-01
-9.17577105e-01 -1.08999953e-01 -3.82323476e-01
5.16196647e-01 6.58236435e-01 5.47965187e-01
5.70761794e-01 -7.64683917e-01 -2.99147918e-01
-9.29229431e-01 3.58095548e-01 -9.11055956e-02
8.33557784e-02 8.96860492e-01 -4.34388152e-01
-2.13848061e-01 1.70069028e-01 -9.61948804e-01
7.40552151e-01 1.80789032e-01 -6.47223169e-01
5.58783407e-02 -4.59362115e-01 8.86489753e-01
7.20894320e-01 3.94131010e-01 5.70063292e-01
8.03527826e-01 -1.51166402e-01 -5.75753198e-01
2.55734979e-01 -4.70813915e-01 8.44354134e-01
7.24023755e-01 -1.73953795e-02 -6.89555649e-01
1.26080632e-01 4.15196195e-01 -9.00952702e-01
-8.94483112e-02 1.15561262e-01 9.89264688e-01
5.07536186e-01 -5.68779168e-01 6.47222760e-01
2.06178749e-01 9.76180085e-01 6.75483323e-02
-6.67232896e-02 8.25091827e-01 5.61045008e-01
9.09378426e-01 -4.07059561e-01 8.56353042e-02
-3.65444727e-02 -9.66309863e-01 -2.54773889e-01
6.65671114e-01 7.23670858e-01 1.82160583e-01
9.00616271e-01 -8.79107195e-02 -4.25631340e-01
-1.86300668e-01 7.43259935e-01 -6.42539269e-01
-3.28487487e-01 -7.43880522e-01 5.82011810e-01
3.70383775e-01 -7.33377681e-01 -5.70064048e-01
6.77682158e-01 -2.16212808e-01 -7.02850555e-01
-9.63429469e-01 4.22159058e-03 2.67928777e-01
-3.83603273e-01 -9.21024596e-01 -6.75441187e-02
5.89299781e-01 -8.01502615e-01 -1.01584082e-01
9.94687097e-01 -4.12389344e-02 9.43236310e-02
3.98668191e-01 6.04093996e-01 6.90024744e-01
-2.98519970e-03 -2.76255909e-01 9.61079491e-01
3.58681951e-01 -3.17482682e-01 -8.77810903e-01
-8.82439609e-01 -4.70413751e-01 -3.34998854e-03
-2.13079077e-01 -9.31542117e-01 -2.94663491e-01
7.91727853e-01 -4.38186907e-01 4.25628080e-01
4.50704822e-01 4.23508718e-01 -7.85815192e-01
-2.50399214e-01 -8.59601557e-01 4.45404760e-01
-7.05992259e-02 -8.94103815e-01 4.42260244e-01
7.05992862e-02 8.94103864e-01 4.42260152e-01
3.28487546e-01 7.43881115e-01 5.82011037e-01
-8.32196925e-01 -2.67610373e-01 4.85626366e-01
-3.19536366e-01 6.21707365e-01 -7.15105895e-01
-6.80827076e-01 2.06104930e-01 7.02847966e-01
-4.48754550e-01 -7.76548988e-01 -4.42256710e-01
6.15695801e-01 3.30971467e-01 7.15106007e-01
-8.95148881e-01 3.57773627e-01 2.65906956e-01
-3.02206609e-01 9.01024016e-01 3.11170208e-01
-2.50426087e-02 -9.93731146e-01 1.08955375e-01
1.51150223e-01 7.99011283e-01 -5.82009082e-01
7.24124648e-01 3.65718265e-01 -5.84716719e-01
1.33226167e-01 7.95525786e-01 5.91091818e-01
-4.42710534e-01 4.47335677e-01 7.77108869e-01
5.77166521e-01 4.85308675e-01 -6.56775677e-01
6.11311430e-01 3.09402687e-01 -7.28401196e-01
4.75462948e-01 5.81733047e-02 8.77810279e-01
