1.94006977e-01 -9.25080655e-01 3.26475801e-01
-4.17006756e-01 7.70591671e-01 4.81967783e-01
1.09957000e-01 -7.77253237e-01 6.19504390e-01
-1.94006977e-01 9.25080655e-01 3.26475836e-01
9.34837290e-01 3.42763547e-01 9.26942593e-02
-1.47452007e-01 1.32975485e-01 9.80088559e-01
5.05835176e-01 -1.31094112e-02 -8.62531473e-01
-6.85624221e-02 -9.92590217e-01 1.00317766e-01
1.39633067e-01 -9.73065192e-01 -1.83431384e-01
4.66905767e-01 -1.89256624e-01 8.63816711e-01
-5.42023605e-01 -8.35336327e-01 9.17793403e-02
-3.85984120e-01 -2.75550755e-01 8.80389902e-01
-2.52230784e-01 9.67594215e-01 -1.18786098e-02
-4.99004469e-01 8.46589579e-01 -1.85151241e-01
-3.27997802e-02 -1.89763355e-01 9.81280895e-01
6.21523495e-01 6.86816873e-01 3.76816177e-01
1.20199736e-01 -7.61797654e-01 -6.36567000e-01
-3.19224727e-01 9.33812824e-01 1.61520556e-01
-3.51206156e-03 -9.57612631e-01 2.88036734e-01
-9.57759505e-01 2.34257042e-01 1.66793450e-01
8.88673200e-01 -2.98187166e-01 -3.48346110e-01
-1.66597415e-01 6.20459966e-01 -7.66339468e-01
6.90526614e-02 8.08959276e-01 5.83794084e-01
-8.51670656e-01 1.73355023e-01 4.94574765e-01
-1.70670125e-01 6.26814134e-01 7.60246228e-01
-5.06174761e-01 4.68710160e-01 -7.23947003e-01
4.17009070e-01 -7.70590863e-01 4.81967055e-01
3.29229868e-01 8.69744121e-01 3.67630494e-01
3.95173422e-01 4.41302914e-01 8.05660100e-01
7.78911810e-01 6.16562989e-01 -1.14659055e-01
-3.22836901e-01 -8.66270163e-01 -3.81251943e-01
-6.66088724e-01 -7.05824599e-02 7.42524429e-01
8.59915012e-01 4.72188261e-01 1.93866099e-01
-5.90442766e-01 8.07009304e-01 -1.06467024e-02
-1.26874046e-01 -8.86538129e-01 -4.44920157e-01
-1.99342530e-01 9.15241633e-01 -3.50137085e-01
2.30379628e-01 4.17401694e-01 8.79033222e-01
2.70314275e-01 -2.66483541e-01 -9.25158610e-01
5.95693236e-01 -5.49717931e-01 5.85626723e-01
-3.82146393e-01 8.55085577e-01 -3.50418976e-01
5.77211491e-01 -3.02771066e-01 -7.58391720e-01
5.81718570e-01 -2.94762528e-01 7.58101002e-01
5.71147361e-02 -5.11448991e-01 8.57412513e-01
4.80555495e-03 6.78450790e-01 7.34629199e-01
-2.57656873e-01 -7.96935733e-01 -5.46358297e-01
2.32017483e-01 -4.49720828e-01 8.62506485e-01
-4.92472273e-01 8.56751968e-01 1.53123631e-01
9.79412462e-01 2.01465223e-01 -1.27680672e-02
-5.71104408e-02 5.11449271e-01 8.57412640e-01
1.36329750e-01 5.45109121e-01 -8.27207235e-01
7.90249690e-01 -3.53382597e-01 -5.00626716e-01
7.48323165e-01 5.85051775e-01 -3.12613915e-01
-8.21320738e-01 -4.08367944e-01 -3.98332283e-01
-2.11185780e-01 -2.38278371e-01 9.47956854e-01
-3.96902158e-01 3.72023984e-01 -8.39087846e-01
-5.55191067e-01 -6.16220598e-01 -5.58601911e-01
7.72360708e-01 -4.24935443e-02 6.33760244e-01
-1.36337042e-01 -5.45108989e-01 -8.27206111e-01
2.26618305e-01 9.69820346e-01 -8.99601191e-02
-5.44433113e-01 7.79157192e-01 3.10654274e-01
-8.54880220e-01 -4.70225120e-01 -2.19245408e-01
3.28028535e-02 1.89763233e-01 9.81280819e-01
9.99733360e-01 2.03076161e-02 -1.09925060e-02
-6.27943901e-01 -4.40026347e-01 -6.41922480e-01
8.54879386e-01 4.70225272e-01 -2.19248375e-01
2.43316420e-01 -8.38732746e-01 4.87158674e-01
-5.77211716e-01 3.02762392e-01 -7.58395014e-01
4.47447195e-01 7.58699325e-01 -4.73463033e-01
-5.38951955e-01 -8.35112117e-01 -1.10085130e-01
-3.97680160e-02 -1.90598976e-01 -9.80863078e-01
4.96772257e-01 3.72005057e-01 -7.84111627e-01
1.25533092e-02 6.66875941e-01 -7.45063959e-01
6.42925452e-02 -8.72443388e-01 -4.84468681e-01
2.51732855e-01 -8.24739610e-01 -5.06395191e-01
-9.59152441e-02 -3.79279548e-01 -9.20298330e-01
-6.12349807e-01 -6.85049092e-01 -3.94634245e-01
-8.72083715e-01 -4.89185318e-01 -1.29511799e-02
9.84848257e-01 -4.82438353e-02 1.66571707e-01
-5.09227137e-01 6.18932575e-03 8.60608967e-01
5.44433697e-01 -7.79157520e-01 3.10652404e-01
-1.40872974e-01 1.37854462e-01 -9.80384005e-01
-4.59646662e-03 9.48589740e-01 -3.16475884e-01
3.85986316e-01 2.75553839e-01 8.80387980e-01
-6.79480106e-01 -2.54501915e-01 6.88138256e-01
-3.71508127e-01 -9.06614173e-01 -2.00082023e-01
8.57467969e-01 -5.14501011e-01 -6.11558418e-03
-9.76758658e-01 -1.43119981e-01 1.59558421e-01
6.77286157e-01 -3.91535184e-01 6.22882403e-01
-7.92448821e-01 5.86033612e-01 -1.69085167e-01
-6.67785420e-02 -7.94276325e-01 -6.03876536e-01
4.99002413e-01 -8.46590428e-01 -1.85152852e-01
-9.19227441e-01 -2.84351441e-01 2.72331876e-01
6.12348352e-01 6.85042744e-01 -3.94647550e-01
-2.51739219e-01 8.24737828e-01 -5.06394948e-01
-3.29229675e-01 -8.69741355e-01 3.67637174e-01
1.83340365e-01 5.39581806e-02 9.81566595e-01
-6.59812895e-01 -6.35285049e-02 -7.48740595e-01
-3.64248461e-01 -1.01685541e-01 9.25732880e-01
6.55601473e-01 -7.39127264e-01 1.54522807e-01
5.46691333e-01 3.52820809e-01 7.59371214e-01
6.79480884e-01 2.54505134e-01 6.88136307e-01
-3.30872674e-01 7.75230337e-02 9.40484813e-01
5.90440237e-01 -8.07011133e-01 -1.06475062e-02
-7.71498519e-01 -1.42769830e-01 -6.20006429e-01
-5.08037812e-01 4.67768606e-01 7.23248752e-01
-1.20210050e-01 7.61796751e-01 -6.36566148e-01
-8.71955711e-01 -2.16430893e-01 4.39146984e-01
-9.34080168e-01 -7.73167988e-02 -3.48592890e-01
-5.46690280e-01 -3.52817213e-01 7.59373634e-01
7.92899437e-01 -5.88980458e-01 1.56244056e-01
-3.24256397e-01 9.27266922e-01 -1.87174272e-01
7.81386208e-01 6.17453485e-01 9.04799881e-02
-5.05832414e-01 1.31015342e-02 -8.62533211e-01
-2.64321570e-01 -8.03859556e-01 5.32862935e-01
8.71614975e-02 -3.28226554e-01 -9.40570023e-01
4.04815272e-01 -3.70725967e-01 8.35873960e-01
9.12409214e-01 2.81212368e-01 -2.97371144e-01
-9.35141810e-01 1.14844883e-01 3.35141487e-01
-2.16287148e-01 -2.35705261e-01 -9.47451676e-01
6.73583455e-01 7.39030967e-01 -1.08899374e-02
5.38953481e-01 8.35110337e-01 -1.10091283e-01
-9.27763407e-01 1.13215269e-01 -3.55581255e-01
-2.70309180e-01 2.66481657e-01 -9.25160644e-01
-3.95172189e-01 -4.41299390e-01 8.05662626e-01
2.64323024e-01 8.03862698e-01 5.32857496e-01
7.92447030e-01 -5.86035984e-01 -1.69085315e-01
-7.90249469e-01 3.53378419e-01 -5.00630017e-01
3.97740900e-02 1.90603491e-01 -9.80861957e-01
3.26004585e-01 -8.63250911e-02 -9.41419546e-01
-5.33102316e-01 -1.72557854e-01 -8.28267627e-01
2.11188615e-01 2.38279433e-01 9.47955960e-01
-5.87360281e-01 6.40644085e-01 -4.94554339e-01
-2.85917616e-01 2.59514357e-01 9.22443322e-01
9.87059566e-01 -1.60065719e-01 -9.61240782e-03
1.11494390e-01 -3.23253338e-01 9.39720442e-01
-4.27784935e-01 7.52284634e-01 -5.01067689e-01
9.57759797e-01 -2.34255702e-01 1.66793655e-01
3.81847662e-01 6.85687698e-01 6.19696368e-01
1.51858049e-06 -1.25039059e-07 9.99999059e-01
-4.53125012e-01 -7.62186902e-01 4.62328854e-01
-3.81846520e-01 -6.85684250e-01 6.19700871e-01
-6.77284370e-01 3.91536356e-01 6.22883613e-01
-5.51103404e-01 7.59723822e-01 -3.45116515e-01
-8.57468262e-01 5.14500542e-01 -6.11450745e-03
6.59815937e-01 6.35205823e-02 -7.48738591e-01
-4.45412562e-01 6.44294411e-01 6.21684163e-01
4.02763943e-01 9.15251511e-01 -9.79340289e-03
-1.85703093e-01 -7.06839968e-01 6.82561591e-01
1.91283846e-01 9.46564575e-01 2.59664245e-01
3.22836333e-01 8.66268621e-01 -3.81255962e-01
8.41978014e-01 -1.74771756e-01 -5.10420237e-01
3.71512930e-01 9.06610475e-01 -2.00089930e-01
9.42482797e-01 7.91660690e-02 3.24743446e-01
-9.87059276e-01 1.60067433e-01 -9.61345917e-03
3.64250878e-01 1.01688104e-01 9.25731651e-01
7.12181437e-01 -5.17973486e-01 -4.73816374e-01
-7.12181370e-01 5.17969633e-01 -4.73820695e-01
7.20859152e-01 -5.21272659e-01 4.56766937e-01
6.27200250e-01 -1.24432059e-01 -7.68854965e-01
7.38204836e-01 -6.74539213e-01 -7.10478855e-03
5.01794660e-01 8.11831661e-01 -2.98549907e-01
-5.95690030e-01 5.49718682e-01 5.85629287e-01
-1.86994441e-01 -9.43079921e-01 -2.75016083e-01
-6.55961005e-01 7.34843499e-01 -1.72396413e-01
9.81038049e-01 -4.89716816e-02 -1.87527269e-01
-8.71554418e-02 3.28229545e-01 -9.40569545e-01
4.88328174e-01 5.41625793e-01 6.84233744e-01
9.32261423e-01 3.41720091e-01 -1.18811830e-01
5.63739942e-01 6.24204702e-01 5.40892559e-01
1.70674689e-01 -6.26813830e-01 7.60245445e-01
6.50393126e-01 2.63914857e-01 -7.12277387e-01
-3.87188910e-01 -2.71016279e-01 -8.81269866e-01
-7.78912700e-01 -6.16562731e-01 -1.14654297e-01
-2.26611703e-01 -9.69822871e-01 -8.99493780e-02
-7.19719696e-01 2.54924521e-01 -6.45769513e-01
-8.95892344e-01 4.15152984e-01 1.58191692e-01
-3.63349003e-01 -9.38522390e-02 -9.26914775e-01
9.19226932e-01 2.84354167e-01 2.72330773e-01
4.27780029e-01 -7.52288860e-01 -5.01065517e-01
-6.99607023e-01 6.43409613e-01 3.10762780e-01
5.73044557e-02 9.89368807e-01 -1.33663114e-01
7.01736028e-01 5.20782071e-01 -4.86162017e-01
2.82176346e-01 -7.18585087e-01 6.35618422e-01
2.16292148e-01 2.35710829e-01 -9.47449153e-01
7.71501625e-01 1.42764168e-01 -6.20003876e-01
-3.39679769e-01 5.51580525e-01 -7.61825451e-01
2.43321932e-01 9.66242526e-01 8.46739195e-02
-7.57279170e-01 -3.33157800e-01 -5.61725189e-01
6.98283897e-02 -9.97503961e-01 -1.04809566e-02
1.66590074e-01 -6.20461347e-01 -7.66339936e-01
3.87191131e-01 2.71014028e-01 -8.81269589e-01
5.51101016e-01 -7.59724358e-01 -3.45119125e-01
-1.83425364e-01 -4.92418437e-02 -9.81800500e-01
8.94563431e-01 -2.99805410e-01 3.31469999e-01
3.51173837e-03 9.57613382e-01 2.88034283e-01
-2.82995660e-01 -4.13284419e-01 -8.65512026e-01
-5.36537519e-01 -1.75242463e-01 8.25479262e-01
-1.32927818e-01 -8.94392128e-01 4.27073882e-01
6.66089976e-01 7.05851724e-02 7.42523053e-01
-8.93737538e-01 4.13996808e-01 -1.72743111e-01
-7.92899165e-01 5.88980314e-01 1.56246006e-01
-7.81386939e-01 -6.17451964e-01 9.04839328e-02
-5.63739854e-01 -6.24201085e-01 5.40896806e-01
-2.82172189e-01 7.18585509e-01 6.35619804e-01
9.76758354e-01 1.43122249e-01 1.59558279e-01
8.93737619e-01 -4.13997285e-01 -1.72741540e-01
1.26869202e-01 8.86538383e-01 -4.44921061e-01
-8.94562803e-01 2.99806619e-01 3.31470600e-01
9.41091006e-01 -3.38062169e-01 -7.85512982e-03
-6.47275088e-01 4.42728944e-01 -6.20505611e-01
-1.17927739e-01 -5.58119580e-01 8.21336734e-01
7.35632598e-01 -2.21717537e-01 6.40066255e-01
3.43268064e-01 -5.56379763e-01 7.56708111e-01
-9.81037761e-01 4.89732659e-02 -1.87528348e-01
-6.98331602e-02 9.97503623e-01 -1.04825316e-02
-6.33083928e-01 1.14102289e-01 7.65626519e-01
1.83430878e-01 4.92460536e-02 -9.81799260e-01
-9.34838045e-01 -3.42761131e-01 9.26954916e-02
3.39674015e-01 -5.51584165e-01 -7.61825373e-01
-6.55602081e-01 7.39126392e-01 1.54524443e-01
6.33085508e-01 -1.14099921e-01 7.65625567e-01
-9.79412851e-01 -2.01463307e-01 -1.27679627e-02
5.09229093e-01 -6.18656315e-03 8.60607832e-01
5.06173971e-01 -4.68719259e-01 -7.23941659e-01
4.92470714e-01 -8.56753040e-01 1.53122590e-01
-3.15479697e-01 -5.56295768e-01 -7.68771109e-01
-9.54490160e-01 2.33952019e-01 -1.84973873e-01
3.79266063e-01 6.78853878e-01 -6.28741488e-01
3.15461083e-01 5.56312307e-01 -7.68766790e-01
6.27938735e-01 4.40026566e-01 -6.41927396e-01
-7.55624353e-01 -5.87464354e-01 2.89684164e-01
-9.41090636e-01 3.38063191e-01 -7.85554624e-03
4.77199975e-01 -6.14230140e-01 -6.28492398e-01
-1.25622768e-02 -6.66875756e-01 -7.45063963e-01
-5.73020921e-02 -9.89368287e-01 -1.33667879e-01
-9.72703191e-01 -1.41338711e-01 -1.84044047e-01
1.32929196e-01 8.94394598e-01 4.27068308e-01
6.55958536e-01 -7.34845642e-01 -1.72396628e-01
-1.91283645e-01 -9.46562606e-01 2.59671522e-01
7.60796829e-01 -6.24354738e-02 -6.45980816e-01
-6.27198481e-01 1.24423777e-01 -7.68857747e-01
8.71955524e-01 2.16433741e-01 4.39145966e-01
-8.75794502e-01 -1.41084733e-02 4.82476974e-01
5.78505914e-01 -6.76507863e-01 4.55705118e-01
8.00831606e-01 -3.52049626e-01 4.84488273e-01
-6.21524713e-01 -6.86812916e-01 3.76821349e-01
-6.50386921e-01 -2.63922923e-01 -7.12280056e-01
-8.30242461e-01 -4.12863839e-01 3.74486573e-01
-3.75583424e-01 8.67075324e-01 3.27287135e-01
8.21319127e-01 4.08368054e-01 -3.98335515e-01
7.91043697e-01 1.44074712e-01 5.94551288e-01
-3.84565021e-01 -9.03483962e-01 1.89277855e-01
-4.04811900e-01 3.70727353e-01 8.35874982e-01
-7.70432777e-01 -3.40392396e-01 5.39041121e-01
6.11547159e-02 3.76782526e-01 9.24279879e-01
-7.38206142e-01 6.74537801e-01 -7.10397652e-03
-2.30377283e-01 -4.17399961e-01 8.79034653e-01
2.85920859e-01 -2.59513188e-01 9.22442643e-01
-7.35631432e-01 2.21719091e-01 6.40067056e-01
3.24254183e-01 -9.27267869e-01 -1.87173357e-01
-8.60202094e-01 -2.12315604e-01 -4.63654297e-01
-4.02762765e-01 -9.15252069e-01 -9.78823940e-03
5.11128122e-01 8.10281817e-01 2.86689543e-01
-4.96761489e-01 -3.72018229e-01 -7.84112191e-01
5.55183965e-01 6.16212868e-01 -5.58617514e-01
5.42023716e-01 8.35336875e-01 9.17738400e-02
-8.59915948e-01 -4.72185657e-01 1.93868237e-01
4.26112672e-01 -9.04514736e-01 -1.67662000e-02
4.45416445e-01 -6.44292838e-01 6.21683001e-01
3.34951883e-06 1.89975873e-06 -1.00000094e+00
-4.80155722e-03 -6.78449371e-01 7.34630523e-01
1.47455093e-01 -1.32975252e-01 9.80088125e-01
-4.88327450e-01 -5.41622211e-01 6.84237083e-01
6.41825269e-01 4.48099727e-01 6.22306835e-01
-1.83337528e-01 -5.39575633e-02 9.81567157e-01
8.30241841e-01 4.12866912e-01 3.74484582e-01
-2.19973528e-01 4.48149897e-01 -8.66472707e-01
3.84562117e-01 9.03486908e-01 1.89269760e-01
8.61813811e-01 1.59958849e-02 -5.06973415e-01
-2.43314255e-01 8.38732784e-01 4.87159711e-01
2.94035933e-01 5.83655890e-01 7.56893161e-01
9.34080234e-01 7.73180123e-02 -3.48592459e-01
-8.61812210e-01 -1.59995295e-02 -5.06976016e-01
-1.09953234e-01 7.77254006e-01 6.19504109e-01
-4.26115497e-01 9.04513428e-01 -1.67655359e-02
2.83010335e-01 4.13290683e-01 -8.65504244e-01
-3.26000337e-01 8.63236455e-02 -9.41421149e-01
-3.43264301e-01 5.56380743e-01 7.56709106e-01
-8.21426876e-01 4.76444857e-01 3.13460681e-01
5.85349653e-02 -8.86718126e-01 4.58588866e-01
4.59524933e-03 -9.48588584e-01 -3.16479329e-01
1.95854341e-01 6.88976759e-01 -6.97820482e-01
-8.00830498e-01 3.52050671e-01 4.84489348e-01
7.57277324e-01 3.33158113e-01 -5.61727506e-01
-9.99733388e-01 -2.03056999e-02 -1.09930482e-02
8.17300814e-01 -4.73391687e-01 -3.28512260e-01
-5.78503639e-01 6.76507971e-01 4.55707861e-01
8.21428143e-01 -4.76444081e-01 3.13458533e-01
9.27764271e-01 -1.13215650e-01 -3.55578887e-01
6.61252142e-01 7.25898429e-01 1.89253089e-01
1.85705405e-01 7.06843162e-01 6.82557670e-01
-2.32013558e-01 4.49721653e-01 8.62507117e-01
-7.11468662e-01 -5.26212283e-01 4.65738220e-01
-6.73583574e-01 -7.39030939e-01 -1.08834268e-02
3.19222886e-01 -9.33813458e-01 1.61520463e-01
-6.56257432e-01 -7.24694591e-01 -2.10105488e-01
8.51671276e-01 -1.73353510e-01 4.94574230e-01
-4.77211670e-01 6.14220947e-01 -6.28492513e-01
6.47274360e-01 -4.42734726e-01 -6.20502240e-01
-4.66903416e-01 1.89258807e-01 8.63817504e-01
5.36539264e-01 1.75245652e-01 8.25477456e-01
6.98218746e-01 -6.37399704e-01 -3.25903066e-01
7.70432738e-01 3.40395684e-01 5.39039115e-01
-8.41976945e-01 1.74767413e-01 -5.10423485e-01
-7.72359821e-01 4.24955126e-02 6.33761188e-01
-5.81716463e-01 2.94764451e-01 7.58101874e-01
8.75794810e-01 1.41106317e-02 4.82476360e-01
-9.84848256e-01 4.82458297e-02 1.66571113e-01
-3.02777796e-01 7.01097907e-01 -6.45591631e-01
1.17931038e-01 5.58121240e-01 8.21335141e-01
-7.48324297e-01 -5.85053255e-01 -3.12608401e-01
7.55623323e-01 5.87467279e-01 2.89680954e-01
-7.01739245e-01 -5.20783420e-01 -4.86155907e-01
5.87356714e-01 -6.40643599e-01 -4.94559192e-01
3.63353069e-01 9.38503441e-02 -9.26913376e-01
-1.32548261e-01 9.78074855e-01 1.60624555e-01
-3.79268384e-01 -6.78853626e-01 -6.28740344e-01
-7.60794947e-01 6.24291160e-02 -6.45983644e-01
3.02767464e-01 -7.01102461e-01 -6.45591518e-01
-6.61252585e-01 -7.25896646e-01 1.89258316e-01
6.67661313e-02 7.94279654e-01 -6.03873548e-01
1.32545644e-01 -9.78075070e-01 1.60625324e-01
-6.41824964e-01 -4.48096126e-01 6.22309729e-01
-7.20856993e-01 5.21273416e-01 4.56769489e-01
-7.91043275e-01 -1.44072142e-01 5.94552463e-01
8.95892839e-01 -4.15152391e-01 1.58190439e-01
6.85591113e-02 9.92590711e-01 1.00315265e-01
-9.32261994e-01 -3.41719006e-01 -1.18810398e-01
4.25767933e-02 -5.06275633e-01 -8.61320970e-01
-4.25812909e-02 5.06274836e-01 -8.61321224e-01
-2.43326463e-01 -9.66240476e-01 8.46841345e-02
-9.42482927e-01 -7.91635869e-02 3.24743658e-01
-8.88672638e-01 2.98185574e-01 -3.48348908e-01
9.35142022e-01 -1.14843091e-01 3.35141514e-01
4.53125245e-01 7.62190241e-01 4.62323146e-01
4.76018093e-01 5.27348506e-01 -7.03783817e-01
-6.42999628e-02 8.72444945e-01 -4.84464917e-01
3.30875324e-01 -7.75211098e-02 9.40484040e-01
-6.98222123e-01 6.37396130e-01 -3.25902837e-01
-1.11490968e-01 3.23253500e-01 9.39720796e-01
7.19720160e-01 -2.54930740e-01 -6.45766540e-01
1.86992892e-01 9.43078990e-01 -2.75020375e-01
9.59246357e-02 3.79283299e-01 -9.20295811e-01
1.99338389e-01 -9.15242045e-01 -3.50138334e-01
-8.17300982e-01 4.73389233e-01 -3.28515388e-01
-5.01791449e-01 -8.11836460e-01 -2.98542212e-01
3.96902581e-01 -3.72031638e-01 -8.39084249e-01
-5.85336093e-02 8.86719135e-01 4.58587113e-01
-6.11514172e-02 -3.76782386e-01 9.24280149e-01
-9.12410043e-01 -2.81211338e-01 -2.97369548e-01
9.54490680e-01 -2.33951241e-01 -1.84972179e-01
2.19970511e-01 -4.48151773e-01 -8.66472497e-01
-4.47447458e-01 -7.58702122e-01 -4.73458278e-01
-5.11129729e-01 -8.10278336e-01 2.86696472e-01
5.08041156e-01 -4.67767355e-01 7.23247206e-01
2.57652810e-01 7.96936859e-01 -5.46358592e-01
4.59724913e-01 -1.96176655e-01 -8.66123174e-01
9.72702937e-01 1.41340452e-01 -1.84044084e-01
5.33105549e-01 1.72549010e-01 -8.28267394e-01
-4.59723039e-01 1.96169223e-01 -8.66125853e-01
-4.76033591e-01 -5.27358554e-01 -7.03765793e-01
3.75584041e-01 -8.67075315e-01 3.27286421e-01
-1.95867810e-01 -6.88967652e-01 -6.97825679e-01
-1.39633682e-01 9.73065042e-01 -1.83431773e-01
1.40879503e-01 -1.37851546e-01 -9.80383476e-01
-2.94034273e-01 -5.83652502e-01 7.56896407e-01
7.11468045e-01 5.26216028e-01 4.65734953e-01
8.72082883e-01 4.89186748e-01 -1.29539563e-02
-6.90500847e-02 -8.08956651e-01 5.83798008e-01
6.56257296e-01 7.24692034e-01 -2.10114792e-01
3.82142511e-01 -8.55087746e-01 -3.50417891e-01
6.99608293e-01 -6.43409389e-01 3.10760365e-01
8.60201476e-01 2.12315829e-01 -4.63655355e-01
2.52226928e-01 -9.67595221e-01 -1.18774949e-02
