5.80721369e-02 -6.75937308e-01 7.34666918e-01
-2.83446279e-01 3.94375843e-01 -8.74143471e-01
-5.67775377e-01 4.27888014e-01 -7.03238104e-01
2.29078875e-01 -1.39449213e-01 9.63366991e-01
3.44168823e-01 7.86501029e-01 -5.12800800e-01
-7.28087744e-01 5.52596657e-01 4.05617217e-01
4.80922055e-01 6.69839308e-01 -5.65711882e-01
-8.52702361e-01 -3.93697146e-01 3.43367114e-01
-5.18805234e-01 -2.84586762e-01 -8.06134021e-01
-2.05371026e-01 9.82793095e-02 -9.73737504e-01
9.89174457e-01 8.06020873e-02 1.22625155e-01
-2.03205923e-01 3.68849892e-01 9.07004237e-01
-9.72506545e-01 -2.18075628e-01 8.16950641e-02
7.09797383e-01 -1.42926698e-01 6.89752780e-01
-7.46819766e-01 -6.19428164e-01 -2.42010345e-01
1.03839981e-01 9.89273154e-01 1.02743871e-01
2.70312909e-01 9.62646307e-01 1.56028397e-02
7.34869274e-01 2.03563157e-01 6.46937912e-01
-9.07690158e-01 -3.85198463e-01 1.66495049e-01
-1.71920576e-01 -4.62663898e-01 -8.69704470e-01
-4.78984521e-02 9.98771247e-01 -1.27387508e-02
8.48929727e-01 -3.44713909e-01 -4.00612735e-01
-3.02629121e-01 -5.54627687e-01 -7.75115532e-01
7.80718724e-02 -1.79304271e-01 -9.80691270e-01
-7.65496229e-01 -2.45705232e-01 -5.94680535e-01
-3.55252148e-01 9.04366768e-01 -2.36468567e-01
2.33737913e-02 7.25183744e-01 -6.88159196e-01
4.68467703e-01 -3.09560384e-01 8.27471758e-01
-1.11123435e-01 -2.17841871e-01 9.69636893e-01
6.54234754e-01 -6.48316689e-01 -3.89438259e-01
-2.03613805e-01 9.70674307e-01 -1.27802401e-01
-4.41447199e-01 7.29203027e-01 -5.22865352e-01
4.11513562e-01 3.64525427e-01 -8.35331377e-01
6.46306474e-01 -7.14972738e-01 2.66648107e-01
-9.52914779e-02 4.43014779e-01 -8.91436113e-01
6.62357119e-01 -2.86848311e-01 -6.92099199e-01
2.39062202e-01 9.45299976e-01 2.21940298e-01
-6.59008166e-01 -6.78362896e-01 3.24856236e-01
-6.17112040e-01 -7.06172824e-01 -3.47120579e-01
-4.86628737e-01 1.25231459e-01 8.64586084e-01
8.74112969e-01 1.22115484e-01 -4.70121834e-01
-4.38348067e-01 -8.02550795e-01 -4.04676623e-01
4.54874945e-01 5.28000667e-01 -7.17150457e-01
7.51967887e-01 6.48845647e-01 -1.16378173e-01
9.80081727e-01 1.97817429e-01 -1.75490850e-02
-8.65171637e-01 -1.38818779e-01 -4.81879506e-01
-2.23778906e-01 9.40640621e-01 2.55183418e-01
-1.43052496e-01 8.60312937e-01 -4.89283631e-01
-2.70315510e-01 -9.54868506e-01 1.23106193e-01
9.39373964e-01 -2.40665799e-01 2.44245809e-01
-3.58000727e-01 -4.65753637e-01 8.09264033e-01
5.17228963e-01 -4.64802311e-01 7.18632124e-01
-5.38044082e-01 8.21896274e-01 1.87070821e-01
-4.23058525e-01 -7.08943890e-01 5.64286593e-01
1.77952424e-01 5.17637210e-01 8.36889642e-01
6.65965856e-01 3.20494589e-02 7.45292986e-01
-6.78624786e-01 7.26959922e-01 1.04871949e-01
2.35367581e-01 -9.70931040e-01 4.35250148e-02
2.76428676e-02 -9.73979242e-02 9.94861163e-01
2.19029346e-01 -4.95557998e-01 -8.40505040e-01
7.89187738e-01 4.78738712e-01 3.84696961e-01
-7.57503077e-01 -6.51840768e-01 -3.59521501e-02
7.00690782e-01 3.85954376e-01 -6.00060107e-01
2.12213027e-01 8.82534921e-01 4.19640144e-01
-5.86332312e-01 6.52668973e-01 4.79830963e-01
-7.45171549e-01 1.45504564e-01 -6.50806040e-01
6.72192743e-01 6.22435755e-01 4.00912121e-01
-6.66514720e-01 6.87393636e-01 2.88528012e-01
5.35394506e-01 -6.17257826e-01 5.76493398e-01
1.99530078e-01 6.60428065e-01 7.23893839e-01
-9.78221343e-01 -4.77185969e-02 2.02004916e-01
-7.66326287e-01 -3.89214865e-01 5.11131495e-01
-9.72053058e-01 -2.10098438e-01 -1.04745802e-01
7.79671800e-01 2.24660481e-01 -5.84499720e-01
-6.43594513e-01 7.17504386e-01 -2.66409968e-01
6.41314758e-01 3.67587924e-01 6.73493917e-01
-7.60397291e-01 -6.18513187e-02 -6.46506754e-01
6.22232073e-01 -7.54184982e-01 -2.09837753e-01
9.99059225e-01 -9.96462288e-03 -4.22039687e-02
8.79034456e-01 3.19809020e-01 3.53582138e-01
-2.50237446e-01 -8.58030283e-02 -9.64375329e-01
-4.15289132e-01 -2.84089199e-01 8.64191864e-01
8.22335273e-01 -1.44871880e-01 5.50251012e-01
-4.95856872e-02 -3.86722028e-01 9.20861808e-01
-6.00423060e-01 -5.28987435e-01 -5.99720551e-01
8.92632696e-01 2.78395308e-02 4.49923680e-01
5.99106294e-01 2.04801734e-01 7.74033143e-01
9.08880504e-01 -1.42210364e-01 3.92061064e-01
6.59733886e-01 2.16883310e-01 -7.19522981e-01
6.57807643e-01 -6.15107663e-01 4.34661803e-01
4.95792094e-01 -6.94358095e-01 -5.21590782e-01
-6.93745825e-01 -5.71485810e-01 -4.38315955e-01
-6.36508235e-01 1.84288101e-01 7.48929139e-01
9.64827399e-01 -3.12362018e-02 2.61021010e-01
2.43022643e-01 -8.34149422e-01 4.95109974e-01
-5.29946290e-01 -6.76435720e-01 -5.11460443e-01
3.68884153e-01 8.67116161e-01 3.34715059e-01
8.47655751e-01 1.95997065e-01 4.93015651e-01
2.35438088e-01 3.48754280e-01 -9.07160488e-01
3.11129345e-01 9.35438984e-01 -1.67788494e-01
-9.53266771e-01 2.99326357e-01 4.10674314e-02
-3.78483081e-01 8.70336518e-01 3.15063820e-01
7.71705359e-01 -5.71709544e-01 2.78600721e-01
9.20506455e-02 -6.41468024e-01 -7.61607283e-01
1.05864906e-01 -7.90202224e-01 6.03632496e-01
4.25855290e-01 -1.51679844e-01 -8.91987093e-01
6.33595962e-01 3.88379909e-02 -7.72688948e-01
-8.64100737e-02 -9.86040217e-01 1.42328460e-01
9.74224379e-01 -2.17353826e-01 -6.03646176e-02
-7.91333225e-01 4.22909254e-01 -4.41520339e-01
-7.43476908e-01 -4.16689803e-01 -5.23079369e-01
-8.82088944e-01 4.67119833e-01 -6.09806574e-02
-6.45355885e-01 3.55529162e-01 6.76102531e-01
4.16979429e-03 9.24662149e-01 -3.80766703e-01
5.35417507e-01 -8.41890774e-01 -6.74352200e-02
7.60254743e-01 5.82124014e-01 -2.88348231e-01
8.63268869e-03 -5.40560019e-01 8.41260628e-01
8.54211605e-01 -5.95077385e-02 -5.16508973e-01
5.14795369e-01 8.23502997e-01 2.38387675e-01
-8.74252471e-01 -2.27246011e-01 4.29000735e-01
3.30242361e-01 6.58489048e-01 -6.76263943e-01
6.58357316e-01 7.14536006e-01 2.36651630e-01
-7.80567246e-01 -2.24621675e-01 5.83317675e-01
-5.10256678e-01 1.32813965e-01 -8.49705465e-01
-1.72322784e-01 5.36555348e-01 8.26082884e-01
4.29857880e-01 -8.99874950e-01 7.38014803e-02
-9.39151220e-01 -2.22568389e-01 2.61645182e-01
4.51141235e-01 8.90964307e-01 -5.15227223e-02
5.04742811e-01 -3.09460648e-01 -8.05896467e-01
3.08741164e-01 -9.27528346e-01 2.10640346e-01
-8.48547121e-01 -5.12744550e-01 -1.30617103e-01
5.29353290e-01 6.46316306e-01 5.49599986e-01
-8.35379945e-01 -5.66802631e-02 5.46742583e-01
-9.85198213e-01 -3.63526763e-02 -1.67521002e-01
4.09555836e-01 -1.43719501e-01 9.00892834e-01
2.90501866e-01 -3.02440434e-01 9.07820227e-01
1.95950062e-01 -8.59206153e-01 -4.72618464e-01
4.94690741e-02 8.65158895e-01 4.99052074e-01
-9.82435922e-01 1.27705947e-01 1.36055267e-01
6.98896639e-01 -7.13268032e-01 -5.28366587e-02
5.76145228e-01 8.14450241e-01 6.87584674e-02
-9.07505547e-01 -3.59194592e-01 -2.17745496e-01
9.09590312e-02 -2.68387680e-01 9.59006594e-01
-4.58675679e-01 -8.09278484e-02 8.84910571e-01
2.07789393e-01 -5.75639430e-01 7.90861487e-01
2.54415545e-01 -1.64494565e-01 -9.53003054e-01
-8.45515030e-01 -5.29699615e-01 6.72496448e-02
3.97061934e-01 -4.71437383e-01 -7.87457208e-01
-8.54389078e-01 -3.11740978e-01 -4.15736932e-01
6.53002484e-01 -4.74961034e-01 5.89914357e-01
3.74860155e-01 7.79590176e-01 5.01716034e-01
9.23885754e-01 3.82173603e-01 1.94532614e-02
-3.65470138e-01 -3.90376393e-01 -8.45007897e-01
-1.40242858e-01 -9.89456554e-01 -3.61553703e-02
8.19949551e-01 -5.68735359e-01 -6.49799523e-02
6.35338534e-01 7.22393282e-01 -2.72934659e-01
-8.47220292e-01 4.24033491e-02 -5.29547288e-01
-6.50099820e-01 -1.72521618e-01 -7.40004805e-01
8.58320018e-01 4.20253287e-01 -2.94404761e-01
-2.39935013e-01 -3.44291566e-01 9.07685914e-01
9.50301170e-01 2.63098706e-01 1.66452877e-01
3.20676918e-02 -5.02086194e-01 -8.64223049e-01
-5.13616070e-01 5.88769690e-01 -6.24139137e-01
-3.86287073e-01 2.37213539e-02 -9.22073948e-01
1.31440297e-01 1.02810162e-03 -9.91323906e-01
-1.98680329e-01 1.69028501e-01 9.65378123e-01
-8.66418966e-01 2.77477793e-01 4.15119603e-01
-3.42613440e-01 6.45247239e-01 -6.82841814e-01
1.46251170e-01 -7.62453394e-01 -6.30297904e-01
-5.01169876e-01 -7.69845319e-01 3.95178897e-01
2.09787681e-01 7.84101670e-01 5.84100707e-01
2.71822643e-01 -9.18488884e-01 -2.87211232e-01
2.78804125e-01 2.02638944e-01 9.38725240e-01
-9.89963138e-01 1.33420845e-01 -4.66067332e-02
5.17421621e-01 2.97127949e-02 8.55214179e-01
5.30277367e-01 7.46973072e-01 4.01045038e-01
-2.51136018e-01 -7.58359316e-01 6.01515644e-01
-4.05712521e-02 -7.46789373e-01 -6.63822047e-01
5.70916977e-01 -1.43736536e-01 8.08327175e-01
-6.64014431e-01 5.15321874e-01 -5.41783180e-01
-7.94035847e-01 6.07487288e-01 2.16042903e-02
5.65677013e-01 3.79770365e-01 -7.31973082e-01
8.51270506e-01 -3.10583378e-01 4.22937148e-01
6.06107700e-01 -7.89598697e-01 9.57430790e-02
8.59666052e-01 4.94667107e-01 -1.27588764e-01
1.04287285e-01 4.84528465e-01 -8.68537387e-01
-8.42055900e-01 4.35036953e-01 3.18880687e-01
-1.78137626e-01 9.32876633e-01 -3.13063776e-01
7.49560516e-01 -3.16305845e-01 5.81471314e-01
-2.14138007e-01 -9.30281764e-01 2.97859192e-01
1.58276634e-02 8.33977955e-01 -5.51571473e-01
-2.63848326e-02 9.78782767e-01 -2.03196456e-01
-6.49443300e-01 -7.46959592e-01 -1.42389003e-01
-6.20646471e-02 9.81034011e-01 1.83631807e-01
3.32369447e-01 -3.26069577e-01 -8.84991290e-01
-9.26255921e-01 -3.76175592e-01 -2.32791724e-02
-3.74371606e-01 9.25698129e-01 -5.41246821e-02
9.11185466e-01 -4.05095965e-01 -7.50862556e-02
3.50437706e-01 2.82739750e-02 9.36158774e-01
8.34717907e-01 5.48568965e-01 4.81473900e-02
1.78902652e-01 1.78130753e-01 -9.67607377e-01
-2.20115759e-01 5.61872428e-01 -7.97401625e-01
-1.53258354e-01 2.76114905e-01 -9.48827333e-01
-3.82437229e-01 9.14600768e-01 1.31330374e-01
-3.54153884e-02 5.94208264e-01 -8.03531700e-01
2.54094404e-01 -7.05192565e-01 6.61920367e-01
-2.18246841e-01 9.73855845e-01 6.30366601e-02
7.79881470e-01 5.83181931e-01 2.27340478e-01
3.11436683e-01 1.51669727e-02 -9.50146193e-01
1.42727408e-01 3.62774015e-01 9.20881852e-01
5.85979691e-01 -1.37633632e-01 -7.98551918e-01
-9.23593492e-01 -5.19569853e-02 3.79836064e-01
-4.23960871e-01 -6.25495985e-01 -6.54990227e-01
9.36583139e-01 3.13286062e-01 -1.57047563e-01
-5.68015027e-01 -2.03280468e-01 7.97518288e-01
-7.27469160e-01 -5.40305766e-01 4.22915917e-01
-3.54787718e-01 4.33569707e-01 8.28337301e-01
-7.43587310e-02 -7.86855913e-01 6.12639952e-01
-4.04327153e-01 4.94256252e-01 -7.69565605e-01
-3.28369293e-01 -8.34035249e-01 4.43348762e-01
9.73755614e-01 -9.98265263e-02 -2.04534957e-01
-5.23834669e-01 7.72184538e-01 3.59622770e-01
9.09813439e-01 -1.69868644e-01 -3.78660977e-01
-5.19589962e-01 -8.18632738e-01 -2.44676476e-01
-1.71004174e-01 -3.67513165e-02 9.84584285e-01
-6.67597377e-01 7.40295375e-01 -7.92281035e-02
4.80335985e-01 2.65721244e-02 -8.76682274e-01
6.29990230e-01 6.40265403e-01 -4.39514549e-01
-3.92601096e-01 -8.77996799e-01 2.73834676e-01
5.99709327e-01 5.34058098e-01 -5.95928897e-01
3.35101694e-01 8.76693339e-01 -3.45132263e-01
4.94988636e-01 -8.35777856e-01 2.37615037e-01
-4.90404671e-01 -8.68382421e-01 -7.35862779e-02
3.54414951e-01 5.28030064e-01 7.71734363e-01
8.59108332e-01 -5.01348040e-01 1.02871225e-01
-7.67370696e-01 2.38227710e-01 5.95306336e-01
1.52793157e-01 -4.28727259e-01 8.90419160e-01
-3.92018113e-01 -1.88810636e-01 -9.00373805e-01
6.21519912e-01 -5.56925681e-01 -5.50950776e-01
4.95498701e-01 7.71210063e-01 -3.99645667e-01
6.23521142e-01 -3.11713590e-01 7.16976428e-01
-1.16410337e-02 -9.82382554e-01 -1.86517106e-01
3.88034013e-02 7.50995801e-01 6.59165764e-01
-1.50502928e-01 7.13226716e-01 -6.84585586e-01
-2.69916006e-01 7.73903542e-01 -5.72904477e-01
5.68401619e-01 -4.47401427e-01 -6.90472090e-01
-7.73255666e-01 6.12393196e-01 -1.64471456e-01
-1.29721295e-01 -6.59759881e-01 7.40194859e-01
3.98339130e-01 9.08073332e-01 1.29340837e-01
8.52553136e-01 -4.63242369e-01 -2.41990502e-01
3.65825396e-01 -8.28703323e-01 -4.23582787e-01
-4.88808083e-01 -4.68757870e-01 -7.35753436e-01
1.08269241e-01 -9.77835925e-01 1.79203825e-01
-9.09325011e-03 1.57219424e-01 -9.87522238e-01
-6.28991302e-01 5.12875226e-01 5.84233623e-01
-1.02381191e-01 -6.12021804e-01 -7.84185998e-01
3.56264874e-01 1.92970022e-01 -9.14242090e-01
-6.39847915e-01 -3.59355993e-01 -6.79307270e-01
9.29081170e-01 -2.88753068e-01 -2.31148561e-01
7.61817841e-01 -5.05524630e-01 -4.05065781e-01
-4.62502241e-01 3.21678761e-01 -8.26205377e-01
-8.20287089e-01 2.51012713e-01 -5.13928398e-01
-2.68049939e-02 -9.49880376e-01 3.11461147e-01
-6.18792520e-01 2.41840164e-01 -7.47402142e-01
-7.61574682e-01 4.01562786e-01 5.08676067e-01
5.25863544e-01 -7.44623852e-01 4.11098584e-01
-3.35297536e-01 4.51963969e-02 9.41027236e-01
3.71613779e-01 -8.50870837e-01 3.71377463e-01
-1.01964165e-01 -1.88568759e-01 -9.76752666e-01
-8.00801499e-01 -5.44792432e-01 2.48833033e-01
-3.10315395e-01 -6.22585521e-01 7.18394630e-01
-4.98836051e-01 4.81518164e-01 7.20626594e-01
-8.72005062e-02 -9.23759063e-01 -3.72914301e-01
-8.63025668e-01 1.12026478e-01 4.92581623e-01
-5.19754970e-01 -4.01106480e-01 7.54299489e-01
6.16192384e-01 7.80860878e-01 -1.02779281e-01
-3.49967337e-02 -3.51329781e-01 -9.35597735e-01
-7.86758426e-01 5.81078298e-01 2.08229483e-01
-4.79620791e-01 -5.65571086e-01 6.70889384e-01
9.39660812e-01 1.56317215e-02 -3.41750283e-01
-1.48476958e-01 -8.74078118e-01 4.62537864e-01
3.98929837e-02 -8.84564349e-01 4.64708138e-01
1.26512244e-01 9.87340471e-01 -9.56765546e-02
5.17292663e-01 5.19056095e-01 6.80432751e-01
1.77698563e-01 -9.22750106e-01 3.41986393e-01
9.77252935e-01 1.08822286e-01 -1.82028520e-01
-2.29262335e-01 -6.97903380e-01 -6.78505591e-01
-1.55891161e-02 4.59279610e-01 8.88154724e-01
-9.39542813e-01 3.10967790e-01 -1.43383443e-01
2.75661782e-01 -6.29905972e-01 -7.26105494e-01
-3.60099547e-01 -9.02733088e-01 -2.35374318e-01
-7.07517344e-01 3.47094181e-01 -6.15585596e-01
4.55584817e-02 3.25936743e-01 -9.44293658e-01
-5.83622183e-01 -6.36835532e-01 5.03810563e-01
-2.98491882e-01 -1.60561939e-01 9.40809097e-01
-5.27347170e-01 -7.69917558e-02 -8.46154789e-01
9.39445415e-01 -3.30825582e-01 8.94220323e-02
1.52979817e-01 -3.44157885e-01 -9.26365473e-01
3.23834203e-01 3.72621398e-01 8.69646014e-01
3.49189747e-01 -9.32332665e-01 -9.39245764e-02
3.70257370e-01 6.65327643e-01 6.48265685e-01
-3.52870744e-01 2.49482485e-01 9.01798358e-01
9.38397155e-01 1.48563761e-01 3.11992353e-01
-7.20807885e-01 -6.77222707e-01 1.47665491e-01
-9.40383102e-01 1.21700045e-01 3.17598429e-01
4.45135308e-01 2.03284551e-01 8.72083321e-01
-9.06951974e-01 1.46544462e-01 -3.94922024e-01
8.69878568e-01 -4.14789590e-01 2.66946188e-01
-5.16092897e-02 2.87184391e-01 9.56483701e-01
-6.46137293e-01 3.55089032e-02 -7.62395196e-01
7.70458149e-01 3.58142003e-01 5.27378589e-01
9.33389492e-02 -9.37570806e-01 -3.35035162e-01
-4.92046191e-01 7.96780494e-01 -3.50759422e-01
-3.24248696e-01 8.52243127e-01 -4.10542631e-01
4.50888425e-01 -5.95840469e-01 -6.64585463e-01
-9.64168744e-01 1.42245515e-01 -2.23931463e-01
-5.19968886e-01 8.36709568e-01 -1.71901522e-01
-1.15002325e-01 8.15208179e-01 5.67635558e-01
4.43946558e-01 -8.65841715e-01 -2.30714534e-01
1.77876368e-01 8.73535239e-01 -4.53097043e-01
-3.19282591e-01 -9.45995633e-01 -5.61293835e-02
-6.60479996e-01 -3.18413063e-01 6.79984398e-01
1.91173498e-01 7.66452864e-01 -6.13191247e-01
1.02371701e-01 1.95429776e-01 9.75359731e-01
7.24885574e-01 -4.02761373e-01 -5.58859748e-01
-1.80391068e-01 -5.12115402e-01 8.39759512e-01
-8.15349303e-01 -4.72978599e-01 -3.33911571e-01
1.60112016e-01 9.47250040e-01 -2.77636750e-01
-5.57061881e-02 -1.56209336e-02 -9.98325368e-01
-4.08147937e-01 7.65697580e-01 4.97114278e-01
-4.62717283e-01 6.33260061e-01 6.20382456e-01
9.86680092e-01 -1.27594993e-01 1.00903687e-01
-8.84093926e-01 4.50075573e-01 1.25738807e-01
7.51428487e-02 9.48633108e-01 3.07325611e-01
3.93063717e-01 -5.97665186e-01 6.98782033e-01
-1.35575244e-01 6.84307373e-01 7.16479334e-01
-3.40174297e-01 2.14147551e-01 -9.15654482e-01
-5.05304032e-01 3.10664442e-01 8.05080820e-01
3.25039912e-01 -7.42107321e-01 -5.86195998e-01
7.66918026e-01 5.35609258e-02 -6.39506288e-01
-3.23421494e-01 5.94011865e-01 7.36578771e-01
7.51440282e-01 -6.18217810e-01 -2.30529651e-01
-1.89923501e-01 -9.57210038e-01 -2.18352262e-01
-5.97809378e-01 6.63759460e-01 -4.49497646e-01
-8.48601187e-01 4.67868749e-01 -2.46932121e-01
3.46921534e-01 -4.56403597e-01 8.19353582e-01
-2.50069678e-01 8.57488488e-01 4.49642997e-01
4.90286699e-01 3.69968268e-01 7.89140001e-01
-6.33037911e-01 -4.87448737e-01 6.01378567e-01
-1.63338812e-01 -8.25042213e-01 -5.40948963e-01
-9.28806312e-01 2.90573256e-01 2.29970016e-01
-2.38041062e-01 -2.94461531e-01 -9.25542778e-01
3.97877928e-01 -7.38246040e-01 5.44688046e-01
-9.98882390e-01 -4.37459521e-02 1.79011079e-02
-8.88999335e-02 9.18837696e-01 3.84492275e-01
9.21745011e-01 2.22488791e-01 -3.17624016e-01
-7.47902097e-01 6.54743379e-02 6.60571937e-01
-4.45885891e-01 -8.89586934e-01 9.90980395e-02
4.67135224e-02 -9.98908043e-01 -1.92577611e-04
-9.36126737e-01 -1.95150104e-01 -2.92546560e-01
-2.65896070e-01 -8.78660493e-01 -3.96553790e-01
7.18711139e-01 6.92750283e-01 5.95944786e-02
8.32838041e-01 3.27722820e-01 -4.46070467e-01
1.92518668e-02 6.12765655e-01 7.90029972e-01
-8.92205083e-01 3.12736393e-01 -3.25832224e-01
7.66640415e-01 -4.68123686e-01 4.39456429e-01
-5.34591136e-01 8.45057408e-01 9.53137659e-03
-3.53210905e-02 8.03834640e-02 9.96137662e-01
7.43395851e-01 4.93806020e-01 -4.51130407e-01
5.18378401e-01 2.04671481e-01 -8.30297546e-01
1.68578101e-01 2.79544886e-02 9.85291443e-01
-6.03764380e-01 2.12023862e-03 7.97159728e-01
1.78307110e-02 -8.57946805e-01 -5.13428933e-01
-5.64156972e-01 -7.96656141e-01 2.16945745e-01
-7.03199950e-01 -1.12917929e-01 7.01967918e-01
5.24882012e-01 -7.70888929e-01 -3.60872382e-01
-9.36527615e-01 -2.53707370e-02 -3.49675281e-01
-7.34929146e-01 5.77134667e-01 -3.56083488e-01
8.79039640e-01 4.31531734e-01 2.02656249e-01
-3.43288529e-01 -7.60907526e-01 -5.50611301e-01
1.69478165e-01 -9.74995591e-01 -1.43736938e-01
2.92383376e-01 5.07193695e-01 -8.10720241e-01
7.92285704e-01 3.15459727e-02 6.09333743e-01
-2.80363770e-01 7.34625818e-01 6.17835787e-01
4.83051793e-01 8.45217008e-01 -2.28625620e-01
8.03761175e-01 -2.35848820e-01 -5.46208207e-01
7.48997235e-01 -6.52967119e-01 1.12412157e-01
7.29551288e-01 -1.18122113e-01 -6.73648538e-01
-6.16697406e-01 -7.86215900e-01 3.93518220e-02
6.63570054e-01 5.09503486e-01 5.47796220e-01
1.62768245e-01 6.28758405e-01 -7.60375047e-01
