-3.70588915e-01 -8.60403834e-01 -3.49812201e-01
4.64674793e-01 -8.74436030e-01 -1.39426269e-01
3.93085248e-01 9.12166216e-01 1.15918996e-01
-9.01251835e-01 4.17853122e-01 -1.14640942e-01
-4.09402585e-01 -8.52706724e-01 3.24469591e-01
1.87330080e-02 -3.74875727e-01 9.26886078e-01
-1.25350554e-01 -8.69599949e-01 4.77580758e-01
7.67865573e-01 -6.38972898e-01 -4.57955425e-02
-4.51763694e-01 4.24667295e-01 7.84580744e-01
1.72353645e-01 -2.47873273e-01 -9.53337757e-01
2.25662005e-01 4.09780096e-01 -8.83830719e-01
-6.58387234e-01 6.56258718e-01 3.68578233e-01
1.67102449e-01 9.13494690e-01 3.70950763e-01
-5.29643642e-01 8.35372037e-01 -1.47072209e-01
-3.77419145e-01 -7.02002226e-01 6.03943346e-01
2.34644657e-01 -5.77837150e-01 -7.81694413e-01
5.85203959e-02 -8.79318593e-01 4.72625260e-01
1.53098463e-01 -9.37852719e-01 3.11438053e-01
4.93259126e-01 -1.64335204e-01 -8.54218744e-01
5.26728418e-01 -6.39282066e-01 -5.60246528e-01
-7.34246094e-01 6.77906833e-01 3.63854464e-02
-3.40438631e-01 -2.46502839e-01 -9.07379210e-01
2.70425936e-02 2.84355089e-01 9.58337796e-01
-5.84974097e-01 -7.55542032e-01 2.94891545e-01
3.20558723e-01 -6.69921048e-01 6.69663177e-01
-2.71541724e-01 4.50924134e-01 -8.50253879e-01
-4.91222107e-01 -8.55693295e-01 1.62755603e-01
-5.36015373e-01 2.12593864e-01 -8.17000740e-01
6.44293397e-01 7.12487708e-01 -2.77935068e-01
2.01645715e-02 -3.61994265e-01 -9.31962007e-01
6.48686582e-01 9.34289830e-02 7.55299923e-01
5.26951129e-01 6.28584304e-01 -5.72018016e-01
3.56259241e-01 -2.94339448e-01 -8.86816638e-01
2.60902670e-01 -5.42097612e-01 7.98787087e-01
2.24092351e-01 9.56690643e-01 1.85811353e-01
-8.64714969e-01 -1.91225333e-01 -4.64434632e-01
-9.91907721e-01 -2.70138741e-02 1.24048538e-01
-8.32866910e-01 -3.66423501e-01 -4.14807496e-01
-5.41037488e-02 8.20538764e-01 5.69024585e-01
-9.70476365e-01 8.99099990e-02 -2.23808787e-01
-2.51153098e-01 2.69468555e-01 -9.29681656e-01
4.82993617e-01 1.13701012e-01 8.68210978e-01
2.71620570e-01 -9.47691409e-01 -1.67641619e-01
-1.17565783e-01 5.59893622e-01 -8.20180934e-01
-5.97913080e-01 7.38440318e-01 -3.11776768e-01
-8.69248024e-01 3.24646722e-03 4.94364633e-01
3.07201145e-01 1.18120250e-01 9.44285929e-01
6.36017276e-01 3.91602093e-01 6.64929277e-01
-7.67294626e-01 3.72068503e-02 -6.40213440e-01
2.76373671e-01 -8.44005132e-01 -4.59644680e-01
7.61626853e-01 -5.32213965e-01 -3.69694173e-01
9.36296949e-01 3.24647000e-01 -1.33990670e-01
-1.59275959e-01 -3.57276818e-01 9.20317736e-01
7.40383718e-01 -3.03333349e-02 -6.71500205e-01
-6.42294320e-01 7.85372011e-02 -7.62422888e-01
-7.71532350e-01 -1.48109014e-01 -6.18708518e-01
-2.24421411e-01 7.23619044e-02 -9.71801419e-01
1.98382200e-01 -3.88048584e-01 9.00035317e-01
-2.54277525e-02 9.96656190e-01 -7.76506452e-02
-9.69320921e-04 -7.84159140e-01 6.20559376e-01
-7.91135046e-01 -4.93316625e-01 3.61584336e-01
-1.31039286e-01 8.21323540e-01 -5.55207851e-01
-3.57156683e-01 -5.90549580e-02 -9.32175247e-01
8.07935872e-01 -1.32165451e-01 5.74258930e-01
7.80349345e-01 -5.34765583e-01 3.24163510e-01
9.85003378e-01 8.09678691e-02 1.52361240e-01
8.99411379e-01 -1.75444422e-01 4.00349689e-01
2.13681762e-01 8.34673400e-01 -5.07602520e-01
5.53032684e-01 -5.33031108e-02 8.31453421e-01
2.00206298e-01 -7.51260798e-01 -6.28907585e-01
9.45935877e-01 2.66185010e-01 1.85343428e-01
8.60252151e-01 4.13182923e-01 -2.98742469e-01
6.66113694e-01 -3.61003773e-01 -6.52663371e-01
-5.50109172e-01 2.64078694e-01 7.92238557e-01
5.98498706e-01 3.28502362e-01 -7.30674962e-01
7.10001274e-01 7.02206603e-01 5.29617350e-02
8.60808637e-01 -3.68986599e-01 3.50512174e-01
-9.28067385e-01 2.91251251e-01 2.32082823e-01
6.42321743e-01 -6.15208049e-01 4.57102872e-01
1.27694179e-01 -6.71802607e-02 -9.89535607e-01
-2.70539062e-02 -9.99550158e-01 -1.29499136e-02
4.33286136e-01 3.39774009e-01 -8.34755577e-01
2.14845584e-01 2.87789690e-01 9.33284073e-01
-5.18818790e-01 7.83204344e-01 3.42662140e-01
4.13257881e-01 -8.95666947e-01 1.64315068e-01
-8.15917179e-01 2.01340690e-01 5.41978045e-01
1.50753906e-01 9.77616434e-01 -1.46762838e-01
3.77068508e-01 -8.75215274e-01 -3.03014990e-01
-1.34926976e-01 7.04433344e-01 -6.96826902e-01
-3.59589956e-01 9.21085843e-01 -1.49315811e-01
-6.52186706e-01 5.41237768e-01 5.30766855e-01
9.27757675e-01 -7.85814293e-02 -3.64817425e-01
-4.25622164e-01 9.04783486e-01 1.45563192e-02
-4.52614710e-01 -1.97610923e-01 8.69534178e-01
-4.91563571e-01 -7.41540210e-01 4.56599447e-01
6.58735190e-01 6.08304268e-01 -4.42757769e-01
-8.88654888e-01 -4.57970082e-01 -2.35532373e-02
4.94960819e-01 8.33180948e-01 -2.46624622e-01
-5.08259131e-01 5.57459125e-01 6.56438503e-01
3.50733251e-01 -9.36466253e-01 -4.21699130e-03
4.01351862e-02 7.86088022e-01 -6.16809863e-01
-8.67189194e-01 -5.01600788e-03 -4.97952129e-01
-5.02854833e-01 -1.77148219e-01 -8.46022732e-01
2.76416576e-01 9.60927773e-01 -1.45565205e-02
1.13337397e-01 4.46436419e-01 8.87608958e-01
-1.09926775e-01 -5.20736353e-01 8.46610953e-01
3.26193567e-01 9.23338382e-01 -2.02593617e-01
2.47171840e-01 -9.54521836e-01 1.66717514e-01
-4.67172091e-01 7.43551313e-01 -4.78414763e-01
-3.63841040e-01 -6.76918042e-01 -6.39844494e-01
-5.54462638e-01 -8.32202222e-01 -3.16776920e-03
-1.87816599e-01 -7.39269329e-01 -6.46687982e-01
3.61753523e-01 8.51805490e-01 -3.78895704e-01
-7.38190984e-01 -6.28341865e-01 2.45478708e-01
-1.54485698e-02 -1.87663647e-01 -9.82111620e-01
2.08617980e-01 -4.17686721e-01 -8.84316839e-01
-6.95780832e-01 2.30044035e-01 -6.80417123e-01
-4.36128882e-01 -5.21634770e-01 -7.33272056e-01
1.22954308e-01 1.22723586e-01 9.84795299e-01
-8.60091629e-01 4.57722709e-01 2.25235811e-01
-6.99825255e-01 -6.64119867e-01 -2.63036979e-01
-1.94467219e-01 -9.16477609e-01 -3.49644133e-01
-3.74117999e-01 6.86676645e-01 6.23306169e-01
1.79202545e-01 -9.26976629e-01 -3.29546694e-01
-7.10776357e-01 -7.01364844e-01 -5.36978303e-02
5.21250557e-01 7.44686347e-01 -4.16821878e-01
9.48752768e-01 -3.11348195e-01 5.41466215e-02
2.27811045e-02 -3.81638124e-02 9.99012044e-01
5.11668656e-01 4.89508966e-01 -7.06099446e-01
5.23181945e-01 -7.49953056e-01 4.04786493e-01
2.94597999e-01 4.43588006e-01 8.46429225e-01
6.65882308e-03 5.87796117e-01 8.08981879e-01
-9.85816294e-01 -1.67296992e-01 1.32908158e-02
-8.78553899e-01 -4.19233815e-01 -2.28877310e-01
-8.58755979e-01 -4.79353373e-01 1.80990378e-01
4.47432040e-01 8.64424992e-03 -8.94276256e-01
8.32577780e-01 -5.21827048e-01 -1.85773804e-01
8.42689868e-01 2.78470982e-01 -4.60791247e-01
-6.14274568e-01 6.34956340e-01 -4.68504033e-01
-2.82521963e-01 -8.14354975e-01 -5.06958409e-01
8.17924361e-01 1.25442336e-01 -5.61484442e-01
-4.47630329e-01 -8.76192776e-01 -1.78641444e-01
-5.95561398e-01 -4.45126471e-01 6.68706691e-01
4.71518054e-01 -7.72766550e-01 -4.24856629e-01
6.78858504e-01 5.12189400e-01 5.26131389e-01
-5.19147724e-02 3.31911222e-03 -9.98645726e-01
5.34977454e-01 -4.95040524e-01 -6.84641867e-01
-3.17107384e-01 -9.34206324e-01 1.63405211e-01
-5.60864862e-03 -9.36890891e-01 -3.49576870e-01
-9.10117011e-01 1.43297347e-01 -3.88782003e-01
-1.50805873e-01 9.51011415e-01 2.69878928e-01
6.76647072e-01 -6.79514546e-01 2.83566388e-01
5.01713075e-01 -6.43136155e-01 5.78498877e-01
1.87228738e-01 -7.81043717e-01 5.95748932e-01
5.53311570e-01 1.69939257e-01 -8.15455262e-01
7.24469993e-01 2.30527235e-01 6.49616565e-01
8.08596717e-01 -2.96199006e-01 5.08368857e-01
1.26657650e-01 8.33829717e-01 5.37295197e-01
-3.80018611e-01 2.67910155e-01 8.85330372e-01
3.83752374e-01 -4.56165389e-01 -8.02899412e-01
1.01744792e-01 9.93407261e-01 5.28204655e-02
2.08690382e-01 7.23864959e-01 -6.57622752e-01
-4.74488091e-01 1.08999983e-01 8.73487157e-01
-9.66342216e-01 2.36086167e-01 -1.02199016e-01
-2.78677121e-01 4.16700891e-01 8.65274174e-01
-3.88758255e-01 -9.21322488e-01 -5.61448360e-03
-3.73694394e-01 -3.49188654e-02 9.26894340e-01
-1.46506116e-01 6.92630558e-01 7.06256956e-01
-1.98353078e-01 8.79917249e-01 4.31742372e-01
-4.31971836e-01 -5.58748040e-01 7.07955375e-01
9.22929379e-01 -3.63473414e-01 -1.26845161e-01
9.41019797e-01 -2.47322085e-01 2.30900330e-01
6.13537018e-02 3.17805345e-01 -9.46168620e-01
1.91112316e-01 9.22580633e-01 -3.35143244e-01
6.50637378e-01 4.76158378e-01 -5.91561254e-01
-3.06791116e-01 7.27055365e-01 -6.14222164e-01
6.67132342e-01 6.43857375e-01 3.74677319e-01
-2.11522983e-01 -9.77318477e-01 -1.03198947e-02
-9.39274253e-01 -5.61254329e-02 -3.38544505e-01
-1.02286822e-01 -9.77191736e-01 -1.86101205e-01
7.04242265e-01 -8.10668871e-02 7.05317166e-01
-2.81315568e-01 -9.42271157e-01 -1.81621342e-01
8.48485064e-01 -5.37939551e-02 -5.26479074e-01
8.77374779e-01 3.20960446e-01 3.56649967e-01
8.22011963e-02 -9.81093007e-01 -1.75213221e-01
6.64143225e-01 -5.19286920e-01 -5.37824883e-01
-4.79863572e-01 -3.54461386e-01 -8.02550372e-01
-2.44693364e-01 -6.37750754e-01 7.30341882e-01
8.72370694e-01 4.42365780e-01 2.08045902e-01
-4.11984662e-01 3.36524352e-01 -8.46769727e-01
9.09378908e-02 -6.67652993e-01 -7.38897601e-01
-1.70933870e-01 5.55725609e-01 8.13603541e-01
-5.92464744e-01 8.05224174e-01 2.44667658e-02
-7.14174664e-01 -3.03536156e-01 6.30729528e-01
6.09347766e-01 -4.94303782e-01 6.19967971e-01
-7.27271395e-01 3.72749907e-01 -5.76309372e-01
5.69010945e-01 2.59289534e-01 7.80382334e-01
-8.04432079e-01 5.80659370e-01 -1.25389275e-01
-2.62232825e-01 -5.85577503e-01 -7.67028232e-01
9.40537811e-01 -2.28599208e-01 -2.51261269e-01
3.40372043e-01 8.85683153e-01 3.15773156e-01
-3.86075641e-01 1.43546443e-01 -9.11229405e-01
-4.73127048e-01 -3.92678522e-01 7.88640717e-01
4.51479061e-01 8.89607723e-01 -6.90302969e-02
-3.32844807e-01 -3.29413658e-01 8.83572865e-01
-5.55820572e-01 -5.91085531e-02 8.29198001e-01
3.52958338e-02 6.57268213e-01 -7.52829509e-01
-1.29810675e-01 -4.79277575e-01 -8.68010186e-01
-6.58970953e-01 -7.41856599e-01 1.24118344e-01
8.65603948e-01 -3.87594752e-01 -3.17019251e-01
3.78757746e-01 -7.66521627e-01 5.18640594e-01
8.82156922e-01 -4.34902121e-01 1.80722639e-01
3.80879652e-01 -6.11709026e-01 -6.93356364e-01
-6.00360149e-01 -7.81443754e-01 -1.70037023e-01
3.15381671e-01 -1.23540762e-01 -9.40888983e-01
-5.80526303e-01 3.70884583e-01 -7.24867321e-01
6.12866695e-01 -2.18551798e-01 7.59362077e-01
-5.52106195e-01 -6.06512085e-01 5.72120155e-01
4.00868634e-01 7.00899502e-01 5.89953331e-01
-6.49802049e-01 -1.00349233e-01 -7.53449467e-01
5.25974042e-01 -3.32460364e-01 -7.82829361e-01
4.65852785e-02 7.22683353e-01 6.89607753e-01
-9.79501195e-01 -1.12162931e-01 -1.67318535e-01
-8.92010140e-01 -1.86894179e-01 4.11567121e-01
6.97749653e-01 -3.17911810e-01 6.41933655e-01
7.78892933e-01 -3.83410201e-01 -4.96309685e-01
-2.93085822e-01 -4.92139103e-01 8.19694997e-01
-7.48167882e-02 4.26345169e-01 9.01461316e-01
-2.31423950e-01 7.80064152e-01 5.81328395e-01
3.94125850e-01 2.78248986e-01 8.75924213e-01
-1.55236319e-01 9.67886810e-01 -1.97727927e-01
3.70602452e-01 6.33345275e-01 -6.79358264e-01
4.38487985e-01 -5.36238585e-01 7.21233323e-01
-8.52455924e-01 3.41367641e-01 3.95962124e-01
-3.10386549e-01 -8.21886296e-01 4.77664170e-01
-9.18819564e-02 9.90810012e-01 9.92621616e-02
4.84388349e-01 7.73262283e-01 4.09187109e-01
7.87677963e-01 4.90080034e-01 3.73344549e-01
8.72145945e-01 -4.89243361e-01 1.91227330e-03
-1.92077405e-01 -1.25417604e-01 -9.73332413e-01
2.43815023e-01 -8.62977948e-01 4.42520048e-01
-9.05163997e-01 1.59071258e-01 3.94174334e-01
9.81344473e-01 -1.78195747e-01 -7.21847040e-02
-9.66079884e-01 1.14549581e-01 2.31445088e-01
-4.46352378e-01 4.93389294e-01 -7.46549064e-01
5.63223215e-01 -7.82123306e-01 -2.66577414e-01
-4.64004312e-03 -7.75979494e-01 -6.30740930e-01
-7.40720880e-01 5.01860958e-01 -4.46617113e-01
9.78446273e-01 -3.89236497e-02 -2.02803057e-01
3.65435421e-01 -7.35110204e-01 -5.71025649e-01
-2.28028933e-01 -9.17585776e-01 3.25636543e-01
-1.87748521e-01 -7.64437749e-01 6.16754082e-01
-9.19725697e-01 2.87287298e-01 -2.67524243e-01
7.34363010e-01 3.08067247e-01 -6.04819141e-01
1.98346043e-01 5.86067388e-01 -7.85610369e-01
9.20056587e-01 3.90036843e-01 3.69910492e-02
-6.35861511e-01 -2.74305750e-01 -7.21412038e-01
5.31152707e-02 4.94122016e-01 -8.67768269e-01
-4.47590619e-01 8.35991442e-01 -3.17458719e-01
2.10267814e-01 -4.96999568e-02 9.76380114e-01
1.31198654e-01 -6.70313528e-01 7.30388483e-01
-6.78586371e-01 7.21574506e-01 -1.37294043e-01
8.49242818e-01 1.88607823e-01 4.93168414e-01
3.06838069e-01 8.18756316e-01 4.85272091e-01
-5.36809986e-01 -7.72824151e-01 -3.38492411e-01
-2.90935075e-01 9.46166317e-01 1.41864689e-01
1.77694841e-02 9.61293163e-01 -2.74953494e-01
7.71122039e-01 -2.12641937e-01 -6.00129156e-01
-2.80946956e-01 1.23571933e-01 9.51734649e-01
6.30620387e-01 -6.62812284e-01 -4.03730829e-01
-4.55458908e-01 -7.40064859e-01 -4.94833769e-01
1.65386495e-01 -9.86217767e-01 -4.71367300e-03
9.58267993e-01 -4.86344506e-02 2.81706569e-01
7.71054273e-01 5.99396972e-01 2.14940982e-01
-9.44130300e-01 -3.68713786e-02 3.27501693e-01
7.67886719e-01 4.50826777e-01 -4.55088946e-01
-9.81880947e-01 1.78140424e-01 6.46100598e-02
-8.42751621e-02 1.99073463e-01 -9.76353846e-01
-4.78488295e-01 8.59527761e-01 1.79611428e-01
-9.24423733e-01 -2.45219214e-01 -2.92073525e-01
9.14725981e-01 9.32343491e-02 -3.93172702e-01
4.58488789e-02 8.86965952e-01 -4.59553006e-01
5.38424765e-02 -5.22523190e-01 -8.50923180e-01
-7.67131603e-01 4.66680626e-02 6.39789382e-01
-6.06978890e-01 5.12331481e-01 -6.07529318e-01
4.58561723e-01 -2.25345319e-01 8.59617189e-01
-1.01043563e-01 -8.60076159e-01 -5.00058967e-01
7.14006296e-01 -6.60390080e-01 -2.32553059e-01
2.29364140e-01 7.24100939e-01 6.50438637e-01
-7.00497583e-01 -4.82736979e-01 5.25611579e-01
-8.40053115e-01 3.34272613e-01 -4.27283486e-01
7.76697952e-01 3.57181260e-01 5.18809294e-01
4.98006436e-01 8.32139389e-01 2.43996467e-01
3.92987410e-01 1.83434101e-01 -9.01062092e-01
-7.47583393e-01 3.81453396e-01 5.43701716e-01
8.88590349e-01 3.74587382e-03 4.58687899e-01
9.87138575e-01 -1.18197071e-01 1.07648974e-01
8.67565833e-01 -2.36224273e-01 -4.37639837e-01
6.40324094e-01 7.33760337e-01 2.27115995e-01
1.85130469e-01 5.96132100e-01 7.81251402e-01
8.58692602e-01 4.96124649e-01 -1.28484891e-01
-9.48147506e-01 -2.99448072e-01 -1.06517000e-01
-3.93248998e-02 -9.46582757e-01 3.20054531e-01
-7.36126114e-02 1.30730953e-01 9.88681423e-01
-8.05087823e-01 -1.52250907e-01 5.73282189e-01
-8.11104989e-01 -3.38191673e-01 4.77215125e-01
2.65707602e-01 5.43202454e-02 -9.62522035e-01
9.78773116e-01 2.04841323e-01 6.67217530e-03
5.52877700e-01 -8.00905611e-01 2.29950984e-01
-6.36126758e-01 7.46358444e-01 1.95680657e-01
-1.34255174e-01 -9.78061707e-01 1.59282490e-01
-8.18058746e-01 1.90558446e-01 -5.42647178e-01
-6.00101302e-01 -4.41701984e-01 -6.66915830e-01
-2.94238165e-01 6.00461889e-01 -7.43551315e-01
3.54651436e-01 4.92000639e-01 -7.95083481e-01
-5.95838688e-01 -2.54685620e-01 7.61650245e-01
8.98982889e-02 1.26578284e-01 -9.87874414e-01
9.75604704e-01 1.33151196e-01 -1.74549245e-01
-3.09833328e-01 -4.22134439e-01 -8.51941938e-01
6.96320838e-01 1.50755443e-01 -7.01719793e-01
7.89886235e-01 -5.96329861e-01 1.43079277e-01
6.73244419e-01 -7.33366652e-01 9.44266679e-02
6.46219719e-01 -1.87922342e-01 -7.39652501e-01
-6.93898533e-01 -1.06641399e-01 7.12131910e-01
-1.05466760e-01 3.90041179e-01 -9.14737114e-01
-1.41070515e-02 9.12129883e-01 4.09658500e-01
3.59221156e-01 5.81819673e-01 7.29689501e-01
-2.81804405e-01 9.07935783e-01 -3.10222823e-01
-3.42670322e-01 8.87903845e-01 3.06925624e-01
-2.27862535e-01 9.73325269e-01 -2.67599190e-02
5.32373538e-01 -8.45849856e-01 3.34264230e-02
9.22029392e-01 2.42439630e-01 -3.01804393e-01
7.50661123e-01 6.49552797e-01 -1.20788622e-01
9.34144505e-01 1.38280895e-01 3.29019516e-01
4.69123569e-01 4.19234811e-01 7.77281281e-01
7.66973464e-01 5.71264180e-01 -2.92249455e-01
-1.65366772e-01 -3.09470422e-01 -9.36419386e-01
-1.70676811e-01 -2.35728005e-02 9.85045175e-01
-5.72896935e-02 -6.63430289e-01 7.46041916e-01
7.54656456e-02 -5.33984256e-01 8.42120154e-01
2.34000426e-01 2.45233252e-01 -9.40799805e-01
-7.97175755e-01 -6.00365704e-01 6.38035232e-02
8.29826104e-01 5.56320240e-01 4.35600726e-02
-5.07751253e-01 9.63672122e-03 -8.61449180e-01
-6.37121237e-01 9.00304609e-02 7.65487121e-01
-6.98389606e-01 2.39408468e-01 6.74488605e-01
3.77377355e-01 7.52467258e-01 -5.39795774e-01
-7.48817763e-01 -3.24976457e-01 -5.77633984e-01
-9.38894294e-01 -3.29897965e-01 9.82021701e-02
3.72863704e-01 -3.92154758e-01 8.40944877e-01
-3.34163034e-01 5.72766032e-01 7.48514493e-01
9.99647342e-01 1.43823547e-02 -2.23536550e-02
9.54740526e-02 -8.61536736e-01 -4.98637340e-01
-3.80562415e-01 7.99412571e-01 4.64877787e-01
-3.00289078e-01 8.30050545e-01 -4.69938062e-01
-6.55164485e-01 -6.30885422e-01 4.15623030e-01
1.12389838e-01 -2.14806491e-01 9.70168725e-01
-8.91291919e-01 -3.40950136e-01 2.98915895e-01
5.25062369e-01 5.43828280e-01 6.54645893e-01
-6.29765895e-01 -6.42403707e-01 -4.36705210e-01
5.57503009e-01 6.52727720e-01 5.12969599e-01
3.87730275e-01 -5.36166198e-02 9.20212733e-01
5.37692998e-01 -3.83763684e-01 7.50741524e-01
-7.70159189e-01 5.07994807e-01 3.85739744e-01
3.97448173e-02 9.70937832e-01 2.36008632e-01
-8.09112221e-01 -5.69533570e-01 -1.44802821e-01
-5.28162824e-01 6.81174110e-01 5.06996323e-01
-6.13813458e-01 4.07447185e-01 6.76179896e-01
-9.30706003e-01 3.61154814e-01 5.78984989e-02
3.79320274e-01 -8.63293673e-01 3.32927906e-01
7.87738171e-01 5.91617493e-02 6.13163778e-01
-7.62465850e-01 6.11050641e-01 2.12748444e-01
-9.57952277e-01 -1.88337743e-01 2.16460537e-01
-8.47512930e-01 5.28508008e-01 4.89887523e-02
-9.98091992e-01 3.23605856e-02 -5.25716623e-02
2.90924737e-01 -2.24535777e-01 9.30025465e-01
-1.20671624e-01 9.11290846e-01 -3.93683680e-01
-5.38929710e-01 -5.99306931e-01 -5.91933320e-01
-7.30350414e-01 6.15231373e-01 -2.96778345e-01
-8.72772828e-02 -6.37000561e-01 -7.65906381e-01
6.05846100e-01 -9.43077008e-03 -7.95526244e-01
6.35815235e-01 -7.65903604e-01 -9.55594519e-02
7.37409296e-01 -4.62258031e-01 4.92489964e-01
-7.00986492e-01 -4.91519420e-01 -5.16745083e-01
5.63592855e-01 8.23384285e-01 6.63480735e-02
-7.22449542e-02 -1.98559045e-01 9.77422826e-01
5.47594069e-02 -9.86525416e-01 1.54173063e-01
-4.65771658e-01 6.28779387e-01 -6.22649341e-01
-7.76316193e-01 -5.26073133e-01 -3.47245009e-01
-1.79689777e-01 2.77380464e-01 9.43807091e-01
-8.39707886e-01 4.62910333e-01 -2.83907254e-01
6.14640223e-01 7.81618393e-01 -1.06257851e-01
-2.58057301e-01 -1.77803876e-01 9.49627480e-01
