5.19507143e-01 -8.46612229e-01 1.15585318e-01
8.31919980e-02 5.75924749e-01 8.13258292e-01
-4.07503927e-01 -5.92824050e-01 6.94621897e-01
-7.87049297e-02 4.65744696e-01 8.81411723e-01
4.18967444e-01 2.66110134e-01 8.68130697e-01
2.82940428e-02 9.56724762e-01 -2.89616002e-01
2.61910694e-01 9.60854107e-01 -9.03451688e-02
8.69546485e-01 1.67032031e-02 4.93568110e-01
-8.18335685e-01 3.16293691e-01 4.79879751e-01
-9.85493349e-01 -1.68981267e-01 1.57535243e-02
1.22305957e-01 9.07308950e-01 4.02282687e-01
7.02081472e-01 -3.09588552e-01 6.41276828e-01
5.52126233e-01 8.10016243e-01 -1.97561336e-01
2.55634824e-01 5.44591065e-01 -7.98794164e-01
-2.38386035e-01 -6.65375868e-01 7.07422382e-01
-8.61153889e-01 -2.00214993e-01 -4.67256191e-01
5.73965343e-01 -4.35383316e-01 6.93544910e-01
8.18336714e-01 -3.16292508e-01 4.79878787e-01
-7.46771357e-01 6.19875677e-01 2.41011336e-01
-4.12264242e-01 9.10714439e-01 -2.52471861e-02
-6.49207450e-01 -2.54787200e-01 -7.16668545e-01
-5.50395100e-01 2.79027332e-01 7.86897883e-01
9.01172206e-01 1.90478588e-01 3.89366433e-01
-1.58631876e-01 -9.85013695e-01 6.77044538e-02
-8.00044668e-01 1.54556587e-01 5.79689806e-01
7.93403621e-01 -6.05692344e-01 6.03939745e-02
2.25714721e-01 -9.74116997e-01 1.22039456e-02
-6.99550687e-01 -1.85109882e-01 6.90190229e-01
-7.62379210e-01 -1.34815542e-02 6.46989652e-01
-7.50810423e-01 -3.26441003e-01 -5.74212930e-01
5.12983249e-02 9.74633821e-01 2.17846731e-01
4.29975933e-01 -5.46520129e-01 7.18634686e-01
5.75800221e-01 -5.82466782e-01 5.73747374e-01
-4.52004309e-01 -6.13097144e-02 8.89905855e-01
-1.56887590e-01 -2.60308822e-02 9.87272910e-01
4.80475360e-01 -5.39431619e-01 -6.91489390e-01
-1.45184236e-02 9.91852755e-02 9.94962618e-01
-7.17268500e-01 6.90149346e-01 -9.60200888e-02
-9.89442518e-01 -2.60457747e-02 1.42565739e-01
-5.19507143e-01 8.46612229e-01 1.15585257e-01
-1.12373526e-02 6.90868369e-01 -7.22893669e-01
-5.11708903e-01 -9.49037990e-02 -8.53901648e-01
2.08461317e-01 -8.65645818e-01 -4.55194033e-01
5.07575765e-02 -8.59554205e-02 -9.95005638e-01
6.99551061e-01 1.85111007e-01 6.90189552e-01
-4.35417526e-01 -7.29220705e-01 -5.27872345e-01
-8.91627649e-01 -3.52894358e-01 2.83664331e-01
2.62987549e-01 3.44941394e-01 9.01028403e-01
-2.57561331e-01 5.01819788e-01 8.25735020e-01
-2.92857348e-01 9.42121422e-01 -1.63223585e-01
-1.47545451e-01 -4.06054967e-01 -9.01859471e-01
-7.93404280e-01 6.05691348e-01 6.03951872e-02
-1.18344918e-01 5.48433655e-01 -8.27777590e-01
9.58349655e-01 1.92684921e-01 2.10803883e-01
4.35415113e-01 7.29219697e-01 -5.27875724e-01
-7.05651464e-01 4.61225979e-01 5.37890439e-01
9.22443707e-01 -3.67154511e-01 -1.19562887e-01
2.69179284e-01 -6.43308335e-01 7.16726076e-01
-5.12972552e-02 -9.74633051e-01 2.17850451e-01
-6.95470619e-01 -4.97959053e-01 -5.18032681e-01
-9.45828221e-01 -2.08357678e-02 3.23997770e-01
-7.93101895e-01 -6.07963883e-01 3.70036151e-02
-3.09234208e-01 5.40359074e-01 -7.82551574e-01
-3.30815193e-01 -3.90045729e-01 -8.59317404e-01
8.43646437e-01 -3.19574916e-01 -4.31431282e-01
-4.30534657e-01 6.83736351e-01 5.89189258e-01
-2.85727773e-02 8.90126921e-01 -4.54816513e-01
-8.95160857e-01 1.53560553e-01 4.18456473e-01
4.12264222e-01 -9.10714461e-01 -2.52470102e-02
6.53078553e-01 8.49391634e-02 -7.52512069e-01
-6.53082887e-01 -8.49335452e-02 -7.52508938e-01
2.35260233e-01 -4.01907916e-01 -8.84942619e-01
-6.06731923e-01 -4.30569518e-01 -6.68196720e-01
-6.48301676e-01 -6.47889112e-01 3.99930346e-01
-2.62987276e-01 -3.44940319e-01 9.01028895e-01
-3.51408966e-01 7.83164319e-01 -5.12996918e-01
-1.36731804e-01 7.90668393e-01 -5.96781728e-01
2.92927613e-01 1.47248192e-01 9.44727762e-01
-6.77333937e-01 2.24851865e-01 -7.00471980e-01
8.58185718e-01 -4.70840161e-01 2.04515625e-01
-8.91228658e-01 4.52641247e-01 2.87636775e-02
4.99835428e-01 8.55480962e-01 1.35339378e-01
-4.03684214e-01 -8.69238283e-01 2.85418311e-01
2.42914474e-01 -9.65391196e-02 -9.65232416e-01
9.26815562e-01 -2.57298100e-01 -2.73515722e-01
-5.73963865e-01 4.35385203e-01 6.93544941e-01
-6.97235764e-02 -5.57662556e-01 -8.27134713e-01
-2.69176889e-01 6.43310985e-01 7.16724590e-01
-9.87393882e-01 1.41928934e-01 7.00673451e-02
-8.54821432e-01 -4.83482603e-03 -5.18900184e-01
1.04200779e-01 -7.54019503e-01 6.48533897e-01
-2.22918198e-01 -2.38750603e-01 -9.45148912e-01
4.27359582e-01 9.02364660e-01 -5.56942999e-02
8.08612430e-01 -1.87338481e-01 -5.57719224e-01
1.45179691e-02 -9.91828509e-02 9.94962867e-01
-9.01172087e-01 -1.90477512e-01 3.89367227e-01
-8.15007952e-01 -3.53059522e-01 4.59467737e-01
-5.32952244e-01 -5.89022645e-01 -6.07465859e-01
-1.57700258e-01 9.41483604e-01 -2.97891777e-01
-6.70000695e-01 7.36742807e-01 9.11538075e-02
8.61154117e-01 2.00214749e-01 -4.67255882e-01
-4.78554095e-01 -7.67700633e-01 4.26170551e-01
7.62379507e-01 1.34827859e-02 6.46989282e-01
3.09234216e-01 -5.40359763e-01 -7.82551100e-01
-2.28651552e-01 3.42922938e-01 9.11110045e-01
1.26311583e-01 2.24572069e-01 9.66235950e-01
-9.36781130e-02 6.19301756e-01 7.79544130e-01
-3.02062229e-02 9.98608014e-01 4.32385841e-02
-1.26311825e-01 -2.24570106e-01 9.66236375e-01
1.12405838e-02 -6.90871906e-01 -7.22890243e-01
9.74676147e-01 -2.03318434e-01 -9.31026933e-02
-6.71858621e-01 1.51794290e-01 7.24957819e-01
-8.35040698e-02 -9.89908496e-01 -1.14491686e-01
-9.98412393e-01 6.09840039e-03 -5.59959584e-02
5.84332266e-01 7.63841287e-01 2.74047526e-01
-1.40853548e-01 -7.47453838e-02 -9.87205289e-01
8.91228177e-01 -4.52642216e-01 2.87635549e-02
1.48671171e-01 -2.53359739e-01 -9.55880001e-01
-1.46359890e-01 9.71681714e-01 1.85508112e-01
-1.86073692e-01 -7.99779894e-01 5.70726028e-01
1.18347112e-01 -5.48440809e-01 -8.27772540e-01
4.97538080e-01 -7.76917904e-01 -3.85817029e-01
-8.01238495e-01 -5.74776062e-01 -1.66281386e-01
1.53564438e-01 8.84710528e-01 -4.40120020e-01
-6.69539841e-01 -6.88182548e-01 -2.79502113e-01
-3.57305449e-01 -6.46277159e-01 -6.74284251e-01
-3.98847423e-02 4.07208903e-01 -9.12464205e-01
1.88336602e-01 -1.68820585e-01 9.67485440e-01
4.03684391e-01 8.69239076e-01 2.85415636e-01
5.17963427e-01 -2.44427195e-01 -8.19737742e-01
1.08775428e-02 8.45660295e-01 5.33610219e-01
3.32953641e-01 8.48909763e-01 -4.10480754e-01
4.78554646e-01 7.67701462e-01 4.26168435e-01
-1.04198200e-01 7.54021552e-01 6.48531922e-01
-2.30730790e-01 -9.38381762e-01 2.57298944e-01
-8.30466405e-01 5.42977251e-01 -1.24504452e-01
4.34705710e-01 -8.16462798e-02 -8.96864332e-01
6.70000309e-01 -7.36743270e-01 9.11529859e-02
4.71517669e-01 -8.58376950e-01 -2.02139274e-01
-5.80039568e-01 8.12259481e-01 -6.15522788e-02
-2.35262002e-01 4.01904948e-01 -8.84943493e-01
1.66322262e-01 -8.63420059e-01 4.76279633e-01
9.37347586e-01 3.36673260e-01 8.96132875e-02
-9.47241540e-01 -3.01515517e-01 -1.08728799e-01
5.80039050e-01 -8.12259804e-01 -6.15530141e-02
-6.19061750e-01 7.45554865e-01 -2.46800943e-01
-7.54012482e-01 4.91737990e-01 -4.35498917e-01
1.36727910e-01 -7.90672430e-01 -5.96777280e-01
9.45828353e-01 2.08365410e-02 3.23997349e-01
-3.46651196e-01 8.76852491e-01 -3.33111013e-01
5.32950633e-01 5.89021533e-01 -6.07468349e-01
-2.92927540e-01 -1.47246555e-01 9.44728039e-01
-5.84332549e-01 -7.63840124e-01 2.74050168e-01
-2.59557263e-01 9.11818769e-01 3.18145048e-01
3.26343497e-01 -5.35541661e-02 9.43732503e-01
-6.26320391e-01 -1.15618030e-02 7.79479568e-01
6.90296399e-01 5.10059832e-01 5.13156305e-01
5.34351803e-01 6.42364653e-01 5.49395409e-01
-1.22304254e-01 -9.07307890e-01 4.02285607e-01
-5.30242509e-01 7.27946483e-01 4.34668158e-01
8.97877148e-01 -3.18220868e-01 3.04223343e-01
6.11680351e-01 6.49738450e-01 -4.51317512e-01
-3.53009263e-01 6.74706215e-01 -6.48194843e-01
8.54821236e-01 4.83456819e-03 -5.18900518e-01
-8.52556754e-01 4.39022440e-01 -2.83560443e-01
-4.34708484e-01 8.16420818e-02 -8.96863367e-01
2.56298085e-01 5.14923943e-01 8.18024386e-01
4.21457633e-01 -3.98551671e-01 -8.14573973e-01
4.10663987e-02 2.46859936e-01 -9.68181069e-01
3.67013629e-01 -8.18955866e-01 4.41148388e-01
4.07505338e-01 5.92824645e-01 6.94620559e-01
3.51403459e-01 -7.83164030e-01 -5.13001143e-01
-4.71518277e-01 8.58376746e-01 -2.02138687e-01
3.46650968e-01 -8.76852432e-01 -3.33111426e-01
5.96023572e-01 -8.19765156e-02 -7.98771848e-01
9.67676670e-02 4.13094581e-01 9.05531932e-01
-4.27360913e-01 -9.02364257e-01 -5.56906624e-02
-7.30037587e-01 3.62694350e-01 -5.79222271e-01
-9.74676193e-01 2.03318426e-01 -9.31021714e-02
6.73614776e-01 -6.13702972e-01 4.11839091e-01
7.05652827e-01 -4.61224532e-01 5.37889903e-01
7.50812545e-01 3.26442629e-01 -5.74209234e-01
6.69538015e-01 6.88183258e-01 -2.79504738e-01
-8.08612936e-01 1.87340916e-01 -5.57717663e-01
3.63938937e-01 7.33292662e-01 5.74308114e-01
-9.70164536e-01 7.07214925e-02 -2.31903957e-01
7.61509023e-01 5.45381577e-01 -3.50233145e-01
9.57013512e-01 -1.51586726e-01 2.47277958e-01
-8.26027488e-01 -3.82473104e-01 -4.13996714e-01
2.57562311e-01 -5.01816966e-01 8.25736435e-01
2.92857313e-01 -9.42121539e-01 -1.63223011e-01
2.70843987e-01 -7.65253947e-01 5.83977242e-01
-7.47013356e-01 6.04962910e-01 -2.75664944e-01
3.96693148e-01 2.21408529e-01 -8.90849932e-01
2.54304612e-01 7.81256090e-01 -5.70060164e-01
1.56887249e-01 2.60331781e-02 9.87272905e-01
6.95469382e-01 4.97959740e-01 -5.18033683e-01
1.40849201e-01 7.47393797e-02 -9.87206364e-01
-3.43071171e-01 2.46852861e-01 -9.06292800e-01
-2.10915005e-01 -9.39353367e-01 -2.70426251e-01
9.44992943e-01 -3.07584238e-01 1.11266261e-01
-8.43646413e-01 3.19576109e-01 -4.31430432e-01
7.47013288e-01 -6.04963152e-01 -2.75664622e-01
6.49211777e-01 2.54790778e-01 -7.16663356e-01
7.73852194e-01 1.39988151e-01 -6.17702721e-01
8.74905839e-01 4.23744469e-01 -2.34479439e-01
-1.92165431e-01 6.73941163e-01 -7.13355721e-01
9.47241513e-01 3.01515645e-01 -1.08728702e-01
3.57306514e-01 6.46272509e-01 -6.74288140e-01
3.26890993e-01 6.23433594e-02 -9.43003936e-01
-5.96023916e-01 8.19779138e-02 -7.98771444e-01
2.28651477e-01 -3.42920284e-01 9.11111066e-01
6.71443916e-01 7.32739414e-01 1.10706457e-01
-4.21457628e-01 3.98551620e-01 -8.14573995e-01
3.33326719e-01 9.37148025e-01 1.03183252e-01
-7.89382737e-01 -5.01836679e-01 3.53602215e-01
5.10457404e-01 3.18004138e-01 -7.98941373e-01
-3.96696804e-01 -2.21412280e-01 -8.90847371e-01
3.98851692e-02 -4.07215834e-01 -9.12461095e-01
6.19059869e-01 -7.45555799e-01 -2.46802866e-01
6.23933811e-02 8.02804210e-01 -5.92969636e-01
-5.75798427e-01 5.82468555e-01 5.73747365e-01
-1.08752225e-02 -8.45658809e-01 5.33612630e-01
6.29986011e-01 -5.23558546e-01 -5.73589217e-01
-1.48674981e-01 2.53355303e-01 -9.55880582e-01
8.85252259e-01 4.63660959e-01 -3.67013285e-02
-5.08335264e-01 1.13069642e-01 8.53703552e-01
-4.80471209e-01 5.39435599e-01 -6.91489162e-01
-1.72587217e-01 -6.85428677e-01 -7.07390848e-01
8.91627638e-01 3.52895405e-01 2.83663074e-01
-4.99836149e-01 -8.55480060e-01 1.35342433e-01
7.30038406e-01 -3.62693030e-01 -5.79222075e-01
-2.54306169e-01 -7.81258615e-01 -5.70056013e-01
-7.41459196e-01 -6.28231949e-01 2.35717351e-01
-6.10149761e-01 7.45639938e-01 2.67839705e-01
-3.41268568e-01 9.27840572e-01 1.50490852e-01
-3.33327227e-01 -9.37147448e-01 1.03186879e-01
9.85493350e-01 1.68981304e-01 1.57533017e-02
6.26320722e-01 1.15627827e-02 7.79479291e-01
5.80065765e-01 8.14324314e-01 -1.99908893e-02
2.10912770e-01 9.39352515e-01 -2.70430938e-01
-2.61911973e-01 -9.60854185e-01 -9.03406793e-02
7.87051647e-02 -4.65742366e-01 8.81412937e-01
7.41458719e-01 6.28233391e-01 2.35715007e-01
2.59558821e-01 -9.11817726e-01 3.18146784e-01
-3.87241670e-01 -8.90492053e-01 -2.38889111e-01
-8.31903146e-02 -5.75923390e-01 8.13259430e-01
-9.75650018e-01 -1.24821353e-01 -1.80351955e-01
1.86075523e-01 7.99780813e-01 5.70724136e-01
7.17267495e-01 -6.90150178e-01 -9.60216896e-02
2.38387850e-01 6.65376546e-01 7.07421129e-01
-5.10455090e-01 -3.18014022e-01 -7.98938916e-01
-4.20593889e-01 -4.37995891e-01 7.94518518e-01
5.88084083e-01 -3.88467219e-01 -7.09401837e-01
-3.74575505e-01 2.29686911e-01 8.98296339e-01
3.30816024e-01 3.90040882e-01 -8.59319284e-01
9.75650012e-01 1.24821257e-01 -1.80352080e-01
-6.90295924e-01 -5.10058628e-01 5.13158140e-01
-1.53566670e-01 -8.84712552e-01 -4.40115181e-01
-7.02248995e-01 -7.05548338e-01 -9.51208516e-02
-2.42918417e-01 9.65342634e-02 -9.65231907e-01
9.05712138e-01 -1.29031635e-01 -4.03778063e-01
-7.07806567e-01 -3.54553198e-01 6.10983919e-01
1.72589197e-01 6.85424879e-01 -7.07394041e-01
1.92171158e-01 -6.73947693e-01 -7.13348016e-01
6.52560676e-02 7.19010852e-01 6.91928047e-01
5.50395878e-01 -2.79025787e-01 7.86897892e-01
-5.88081924e-01 3.88470366e-01 -7.09401897e-01
3.74575618e-01 -2.29684850e-01 8.98296822e-01
-9.58349622e-01 -1.92684398e-01 2.10804491e-01
-5.80067004e-01 -8.14323511e-01 -1.99877192e-02
3.41269239e-01 -9.27840169e-01 1.50491863e-01
-5.73528055e-01 -3.43761476e-01 7.43567721e-01
-2.55633663e-01 -5.44595875e-01 -7.98791258e-01
-5.17963580e-01 2.44427657e-01 -8.19737504e-01
-6.71444799e-01 -7.32738181e-01 1.10709270e-01
2.85706282e-02 -8.90129583e-01 -4.54811449e-01
6.10150311e-01 -7.45639575e-01 2.67839489e-01
6.77334718e-01 -2.24849068e-01 -7.00472129e-01
8.95161362e-01 -1.53559561e-01 4.18455770e-01
8.00045358e-01 -1.54555274e-01 5.79689212e-01
2.22914794e-01 2.38745382e-01 -9.45151034e-01
-5.52128087e-01 -8.10015768e-01 -1.97558114e-01
9.36803989e-02 -6.19299515e-01 7.79545640e-01
-7.96326034e-01 4.74425256e-01 3.75213518e-01
8.55856786e-01 4.90501899e-01 1.64063719e-01
7.89382701e-01 5.01838100e-01 3.53600283e-01
4.64002156e-02 -2.91949302e-01 9.55307164e-01
9.70164454e-01 -7.07215817e-02 -2.31904292e-01
-4.18967001e-01 -2.66109006e-01 8.68131256e-01
-5.34350944e-01 -6.42363922e-01 5.49397100e-01
-5.66770606e-01 -4.98676654e-01 6.55814069e-01
4.43097953e-01 4.93326526e-01 -7.48527760e-01
7.02247724e-01 7.05549232e-01 -9.51235943e-02
-9.32255907e-01 -6.36253667e-02 -3.56161548e-01
-4.64003671e-02 2.91951763e-01 9.55306403e-01
-3.63937659e-01 -7.33291965e-01 5.74309817e-01
1.47545771e-01 4.06049765e-01 -9.01861760e-01
-2.70841534e-01 7.65256138e-01 5.83975498e-01
7.46771634e-01 -6.19875711e-01 2.41010420e-01
5.08432866e-01 -6.67266554e-01 -5.44290231e-01
8.30466190e-01 -5.42977506e-01 -1.24504826e-01
3.02063996e-02 -9.98607849e-01 4.32423860e-02
-8.13400422e-01 -1.87095590e-01 5.50794427e-01
-9.57013300e-01 1.51587095e-01 2.47278529e-01
5.73528846e-01 3.43762180e-01 7.43566787e-01
5.11704600e-01 9.48989110e-02 -8.53904772e-01
-8.55857190e-01 -4.90500698e-01 1.64065195e-01
7.54013114e-01 -4.91737499e-01 -4.35498392e-01
1.57698942e-01 -9.41485015e-01 -2.97888035e-01
8.26028091e-01 3.82474285e-01 -4.13994426e-01
-3.26343536e-01 5.35561471e-02 9.43732375e-01
6.97250253e-02 5.57657776e-01 -8.27137810e-01
-8.97876624e-01 3.18221232e-01 3.04224487e-01
7.93101030e-01 6.07965136e-01 3.70015836e-02
-3.32956151e-01 -8.48910679e-01 -4.10476830e-01
7.44803791e-01 -5.16843545e-02 -6.65279367e-01
2.30731418e-01 9.38382543e-01 2.57295518e-01
9.89442565e-01 2.60458869e-02 1.42565422e-01
-1.02323080e-01 9.86170675e-01 -1.30374446e-01
-2.25714189e-01 9.74117132e-01 1.22024659e-02
8.13400697e-01 1.87096848e-01 5.50793600e-01
-9.05712270e-01 1.29031460e-01 -4.03777810e-01
-2.56296752e-01 -5.14923247e-01 8.18025244e-01
-6.52538015e-02 -7.19009479e-01 6.91929692e-01
9.32255852e-01 6.36252006e-02 -3.56161733e-01
1.46361156e-01 -9.71681095e-01 1.85510385e-01
-2.98395218e-01 -8.50541555e-01 4.33057705e-01
5.30243937e-01 -7.27945226e-01 4.34668536e-01
5.62506568e-01 1.76868652e-01 8.07652849e-01
-6.38886934e-01 6.46408720e-01 -4.17108638e-01
-9.37347731e-01 -3.36672676e-01 8.96139393e-02
-7.02080271e-01 3.09590022e-01 6.41277426e-01
-7.44805691e-01 5.16884805e-02 -6.65276913e-01
4.52004555e-01 6.13109863e-02 8.89905645e-01
-4.29974147e-01 5.46522672e-01 7.18633814e-01
9.19721003e-01 2.54206547e-01 -2.99153100e-01
-5.62506175e-01 -1.76867764e-01 8.07653315e-01
-6.29984511e-01 5.23559243e-01 -5.73590218e-01
-3.26895065e-01 -6.23480936e-02 -9.43002210e-01
-8.85252764e-01 -4.63660030e-01 -3.67008374e-02
3.43068698e-01 -2.46856210e-01 -9.06292827e-01
-5.08431056e-01 6.67266248e-01 -5.44292287e-01
-4.43096649e-01 -4.93333399e-01 -7.48524003e-01
5.87094717e-02 -9.33505573e-01 3.53723387e-01
-4.50451570e-01 8.46277220e-01 2.84443300e-01
1.58631689e-01 9.85014027e-01 6.76999992e-02
8.15008211e-01 3.53060852e-01 4.59466259e-01
4.50452470e-01 -8.46276492e-01 2.84444062e-01
-2.82960238e-02 -9.56726250e-01 -2.89610910e-01
-4.10695126e-02 -2.46866631e-01 -9.68179231e-01
-9.67673559e-02 -4.13092746e-01 9.05532804e-01
-2.08462374e-01 8.65643415e-01 -4.55198106e-01
-8.74905939e-01 -4.23743741e-01 -2.34480377e-01
7.07807185e-01 3.54554289e-01 6.10982572e-01
-9.19720907e-01 -2.54206500e-01 -2.99153425e-01
-6.23956934e-02 -8.02807009e-01 -5.92965610e-01
-5.05870268e-01 -7.80327493e-01 -3.67674589e-01
-9.22443753e-01 3.67154303e-01 -1.19563122e-01
-1.88336841e-01 1.68823143e-01 9.67484945e-01
6.38887394e-01 -6.46409006e-01 -4.17107507e-01
9.87393897e-01 -1.41929049e-01 7.00669755e-02
-4.10846648e-01 3.94065645e-01 8.22141451e-01
3.53017597e-01 -6.74701173e-01 -6.48195561e-01
6.71859278e-01 -1.51793114e-01 7.24957462e-01
-5.07625172e-02 8.59497683e-02 -9.95005873e-01
-8.58185724e-01 4.70839900e-01 2.04516169e-01
-5.87074665e-02 9.33506732e-01 3.53720646e-01
-8.69546250e-01 -1.67020467e-02 4.93568555e-01
8.01237480e-01 5.74777025e-01 -1.66282954e-01
5.66771660e-01 4.98677255e-01 6.55812700e-01
-3.67011902e-01 8.18957354e-01 4.41147048e-01
4.10847410e-01 -3.94063319e-01 8.22142190e-01
7.96326746e-01 -4.74424576e-01 3.75212884e-01
5.08335595e-01 -1.13068374e-01 8.53703526e-01
-1.66319975e-01 8.63421730e-01 4.76277392e-01
-6.11682507e-01 -6.49738136e-01 -4.51315043e-01
4.30536834e-01 -6.83734184e-01 5.89190193e-01
6.06730497e-01 4.30569405e-01 -6.68198089e-01
1.02322383e-01 -9.86171245e-01 -1.30370727e-01
8.52556890e-01 -4.39022063e-01 -2.83560638e-01
4.20594920e-01 4.37996626e-01 7.94517566e-01
-9.26815676e-01 2.57297815e-01 -2.73515585e-01
-9.44992914e-01 3.07583935e-01 1.11267289e-01
8.35029024e-02 9.89908025e-01 -1.14496571e-01
6.48301762e-01 6.47890387e-01 3.99928140e-01
-7.73852208e-01 -1.39988798e-01 -6.17702552e-01
-4.97541351e-01 7.76917100e-01 -3.85814412e-01
9.98412384e-01 -6.09847000e-03 -5.59961962e-02
5.05867857e-01 7.80327520e-01 -3.67677846e-01
3.87239573e-01 8.90491927e-01 -2.38892970e-01
2.98396272e-01 8.50542360e-01 4.33055391e-01
-6.73613651e-01 6.13703855e-01 4.11839599e-01
-7.61510285e-01 -5.45380578e-01 -3.50231954e-01
