8.04540077e-01 -4.39255297e-01 -3.99711671e-01
-7.80394918e-01 6.16135225e-01 -1.06591864e-01
9.95833426e-02 3.33693248e-01 9.37407171e-01
-2.28182050e-01 2.84847792e-01 -9.31018183e-01
-3.67221389e-01 2.84082798e-01 8.85689457e-01
6.80775220e-01 -7.32491444e-01 8.25892596e-04
-6.95166584e-01 7.18324749e-01 2.74532112e-02
3.74081555e-01 9.07552705e-01 1.90817816e-01
3.01224441e-01 -7.66190934e-01 5.67639661e-01
-8.36004916e-01 4.93736199e-01 -2.39417959e-01
3.36330737e-01 8.93117624e-01 -2.98701975e-01
7.28678141e-01 -2.06579675e-01 6.52956841e-01
2.52610891e-01 8.40064027e-01 -4.80083828e-01
-1.65787065e-01 -9.73451820e-01 -1.57815455e-01
-6.05514580e-01 -7.59315893e-01 -2.38309219e-01
-5.03140219e-01 8.33948051e-01 -2.26674278e-01
-6.60171434e-02 -7.69448245e-01 -6.35287868e-01
3.33554698e-02 -9.40749240e-01 3.37457809e-01
-2.99007348e-01 -2.01310651e-01 -9.32774655e-01
-8.80900312e-01 4.71535264e-01 -4.08628689e-02
-4.82015760e-03 7.43893462e-01 -6.68281106e-01
-8.82810784e-01 3.47353166e-01 3.16214329e-01
-5.18467338e-01 3.15054198e-01 7.94942102e-01
8.15427031e-01 2.81346740e-01 5.05887953e-01
-5.16836392e-01 -6.87635875e-01 5.09938169e-01
-2.05377500e-01 2.45810946e-01 9.47310601e-01
-5.80836155e-01 7.31389376e-01 -3.57350761e-01
4.17161332e-01 -6.41833483e-01 6.43448308e-01
8.05800942e-02 -1.92356488e-01 -9.78011041e-01
1.12649309e-01 -9.93476446e-01 -1.77223343e-02
2.37325380e-01 9.57843223e-01 -1.61905652e-01
-5.74998534e-01 3.80899845e-01 -7.24080373e-01
5.31873118e-02 5.10624363e-01 8.58157451e-01
-7.32918806e-01 3.46743721e-01 5.85319895e-01
5.40234618e-01 8.13643816e-01 2.14780207e-01
-6.69046442e-01 -6.47551607e-01 -3.64765226e-01
8.51539446e-01 -4.73563642e-01 -2.24983100e-01
4.44595478e-01 -3.80068938e-01 8.11099337e-01
-7.22483557e-01 6.22633686e-01 -3.00575173e-01
-3.03851585e-01 7.86968353e-01 -5.36987472e-01
-5.02835535e-01 -3.42488858e-02 8.63703489e-01
9.93544445e-01 1.83857433e-02 -1.11941821e-01
9.45865763e-01 2.66418700e-01 1.85361248e-01
3.59297663e-01 -8.41306357e-01 4.03866582e-01
3.12075942e-01 -7.36202830e-01 -6.00510948e-01
-9.54428667e-01 1.34383775e-02 -2.98137085e-01
-3.29466122e-02 3.09710672e-01 -9.50259922e-01
-6.41770222e-02 -9.97927297e-01 4.67895770e-03
9.07613261e-01 3.75159271e-01 -1.88397158e-01
4.56059981e-01 1.62714765e-01 -8.74947433e-01
-4.31541844e-01 4.99791503e-01 -7.50986342e-01
7.96026262e-01 -3.12603190e-01 5.18286568e-01
-2.59904405e-01 -9.15118928e-01 -3.08231441e-01
-6.82319137e-01 -3.92285564e-01 6.16889589e-01
6.41826365e-01 -6.59354984e-01 3.91547333e-01
6.35202801e-01 5.55080273e-01 -5.37031914e-01
-5.67874215e-01 8.08545453e-01 1.54187666e-01
9.14164300e-01 -1.39084346e-03 4.05341017e-01
2.30925188e-01 4.46978405e-01 8.64224562e-01
7.79608353e-01 1.22159072e-01 -6.14237456e-01
9.33399728e-01 -3.26588596e-01 -1.48674941e-01
-2.98573365e-01 4.25813735e-01 -8.54129320e-01
6.32762904e-01 1.49211666e-01 -7.59833354e-01
7.27823681e-01 -5.02556001e-01 4.66593619e-01
6.14099171e-01 -1.55010887e-01 -7.73856194e-01
1.09406724e-01 -7.75414552e-01 6.21901938e-01
1.10022348e-01 8.69460571e-01 4.81595142e-01
-8.74748327e-01 3.34078636e-01 -3.51009060e-01
-4.17955191e-01 -7.13994901e-01 -5.61715648e-01
4.72425775e-01 5.72982311e-01 -6.69705317e-01
-9.58541056e-01 2.84761740e-01 -1.05055385e-02
-8.09799377e-01 -3.26883075e-01 4.87209028e-01
-1.61412085e-01 -1.25817471e-01 9.78834099e-01
-1.48033477e-01 -6.11204169e-01 7.77505852e-01
3.49088534e-01 -2.57323421e-01 9.01066947e-01
2.49395912e-01 -4.04652289e-01 8.79805634e-01
5.75366507e-02 4.75123820e-01 -8.78035904e-01
-2.42826816e-01 -9.69882295e-01 1.90535664e-02
5.98565722e-01 -2.99770644e-01 7.42870299e-01
-2.15658108e-01 -4.39233518e-01 8.72104023e-01
1.22540397e-01 -7.65238255e-01 -6.31976049e-01
6.71741779e-01 -5.60319261e-01 -4.84566466e-01
-8.41763076e-01 -2.11735065e-01 -4.96591770e-01
-1.22639790e-01 5.58626676e-01 8.20302480e-01
-4.32791036e-01 1.50841295e-01 -8.88785132e-01
-4.84219737e-01 -1.72620043e-01 -8.57749148e-01
-9.26753603e-01 1.45346174e-01 3.46414148e-01
-4.02011682e-01 -3.83385364e-01 8.31506048e-01
9.83808509e-01 -1.65999009e-01 -6.75620016e-02
-7.56046872e-01 -6.21903795e-01 -2.04031265e-01
-1.73612648e-01 -6.43936142e-01 -7.45120487e-01
7.38020162e-01 5.57815052e-01 -3.79695359e-01
-9.71301025e-01 -2.37822046e-01 3.90888700e-03
-9.22513009e-01 3.47477601e-01 -1.68016787e-01
2.55328609e-01 -9.57517160e-01 1.34043123e-01
9.59942287e-01 -9.69650937e-02 2.62884258e-01
-2.85326932e-01 -2.64065436e-01 9.21334928e-01
6.87250822e-01 6.87818431e-01 2.33649785e-01
-7.88410515e-01 -5.00812682e-01 -3.57205188e-01
2.65401752e-01 1.64813505e-01 -9.49946476e-01
-1.05542226e-01 -2.05653531e-01 -9.72916905e-01
-1.93878983e-01 -4.54471216e-02 -9.79972176e-01
-1.03101762e-01 -3.12673151e-01 9.44248636e-01
2.19380918e-02 -8.65319284e-01 -5.00740170e-01
-1.13572685e-02 1.54664673e-02 9.99815937e-01
-8.68473503e-01 4.65343511e-02 4.93547137e-01
9.39412441e-02 -5.13414775e-01 -8.52982945e-01
-1.22840402e-01 4.56416640e-01 -8.81245886e-01
-2.47896291e-01 5.82066043e-01 -7.74433283e-01
6.07526163e-01 6.95089800e-01 -3.84398517e-01
-9.82197419e-01 -1.10195510e-01 -1.52136544e-01
-4.09712828e-01 9.08161061e-01 8.59044682e-02
2.45306178e-01 9.07147749e-01 3.41918517e-01
-6.92470434e-01 6.10561862e-01 3.84317036e-01
-1.49819611e-01 -9.22791472e-01 3.54978262e-01
-5.18801794e-01 1.42282072e-01 8.42971466e-01
-4.85829366e-01 7.04883238e-01 -5.16826858e-01
-6.33986187e-01 -4.26408184e-01 -6.45164747e-01
8.64477499e-01 5.01043952e-01 -4.04167607e-02
-8.94391381e-01 1.53946544e-01 -4.19958273e-01
-6.57912461e-01 2.34175579e-01 7.15760765e-01
-3.27866313e-01 -8.72009812e-01 3.63458744e-01
-9.27170594e-01 -3.36791724e-01 1.64092206e-01
-9.01771101e-01 4.11218958e-01 1.33073219e-01
-3.35774143e-01 -8.15665891e-02 9.38404392e-01
-2.56580606e-01 -7.05154874e-01 6.61001343e-01
-7.05507698e-01 2.50966362e-01 -6.62778361e-01
-3.75954923e-01 6.54870902e-01 -6.55593214e-01
3.14355075e-01 -8.88217094e-01 -3.35038234e-01
-9.32156169e-01 -6.22430352e-02 3.56666625e-01
7.91296948e-01 6.02365070e-01 1.04906937e-01
-3.57959041e-01 1.01830085e-01 9.28168226e-01
3.59005147e-01 1.07211451e-02 -9.33273875e-01
-7.43301043e-01 -4.94655228e-01 4.50355252e-01
2.28202570e-01 -6.64838440e-01 7.11275638e-01
-3.24529372e-01 -5.45352886e-01 7.72832987e-01
6.16603146e-01 5.59757707e-01 5.53599103e-01
5.87166365e-01 -5.87817743e-01 5.56511844e-01
-3.56884171e-01 -6.14173786e-01 -7.03863620e-01
-7.35181024e-01 -2.22441107e-01 6.40335123e-01
5.03173723e-01 -2.91180468e-01 -8.13652066e-01
-3.57742610e-01 7.05870393e-01 6.11365536e-01
1.11837494e-01 -9.28500559e-01 -3.54088250e-01
-1.10030465e-01 -9.76781972e-01 1.83820009e-01
7.47387979e-01 4.16710674e-03 6.64374582e-01
8.32811443e-01 -2.55233014e-01 -4.91203278e-01
4.63469712e-01 1.93169502e-01 8.64801340e-01
-7.72705367e-02 3.86900293e-01 9.18878535e-01
-4.83004319e-01 5.79836347e-01 6.56122878e-01
-4.63200290e-01 -8.62127717e-01 2.05380209e-01
-4.14559649e-01 4.61216171e-01 7.84487380e-01
-9.90891059e-01 1.24311715e-01 5.17881062e-02
6.89328665e-01 6.87622283e-01 -2.28038707e-01
-5.36768504e-01 6.74724345e-01 5.06583938e-01
-6.82326597e-01 -7.27830037e-01 -6.85108371e-02
4.91511508e-01 8.68006084e-03 8.70827749e-01
-1.87979408e-01 6.00501677e-02 9.80335619e-01
-4.96828311e-01 -7.88230481e-01 3.63117263e-01
6.83316299e-02 9.47506153e-01 3.12351414e-01
-2.03013512e-01 -3.59600011e-01 -9.10754165e-01
6.79653558e-01 -7.03744058e-01 2.06917075e-01
-7.62681611e-01 -5.87901919e-01 2.69607346e-01
3.47931532e-01 3.14825808e-01 -8.83078877e-01
-8.65629257e-01 -4.62653006e-01 -1.91411295e-01
-4.08529292e-01 8.25052839e-01 -3.90374475e-01
4.54124820e-01 -4.56294819e-01 -7.65222297e-01
-9.11900194e-01 -4.09989823e-01 -1.86157347e-02
-7.34847728e-02 8.93285497e-01 4.43442871e-01
-8.11419179e-01 5.21304457e-01 2.64274940e-01
9.37259174e-01 -3.46731637e-01 3.63568078e-02
6.21883156e-01 9.94656261e-02 7.76767525e-01
-6.50414416e-01 -6.48363453e-01 3.95709333e-01
-8.07378583e-01 1.10083062e-01 -5.79673960e-01
6.53090959e-01 7.54237602e-01 6.78084321e-02
8.14109170e-01 5.40101693e-01 -2.13345612e-01
4.33721264e-01 -9.00070930e-01 4.19225723e-02
4.02533386e-01 -8.86573872e-01 2.27932001e-01
4.26222819e-01 7.99780897e-01 -4.22711306e-01
-1.91177242e-01 -8.35540125e-01 5.15095745e-01
4.56935654e-01 7.24312310e-01 5.16315543e-01
-4.36545945e-01 8.54925591e-01 2.80233050e-01
-3.70628683e-02 -4.96343080e-01 8.67334832e-01
3.25809574e-02 -6.56284665e-01 7.53809399e-01
-1.44880932e-02 -3.65169596e-01 -9.30828114e-01
-3.40324349e-02 7.99434955e-01 5.99788347e-01
1.75877474e-01 -1.11389774e-02 -9.84348954e-01
-1.15113387e-02 -8.65797994e-01 5.00260823e-01
1.21226201e-02 9.91361551e-01 1.30598147e-01
3.40179525e-01 -3.26442572e-01 -8.81880223e-01
-4.08959943e-01 9.08233327e-01 -8.86829311e-02
5.88702125e-01 2.82287368e-01 7.57458661e-01
8.92645714e-01 -2.07897606e-01 3.99952186e-01
9.42867109e-01 3.33079000e-01 -7.73125310e-03
-5.71794952e-01 7.46829648e-01 3.39553683e-01
5.02610126e-01 -6.63786367e-01 -5.53868289e-01
-3.82831685e-01 -3.48076902e-02 -9.23162166e-01
8.28301659e-02 1.53211828e-01 -9.84715826e-01
-7.55438171e-02 -9.38609368e-01 -3.36608177e-01
5.44731472e-01 6.51692164e-03 -8.38585025e-01
3.40548899e-01 -5.32931449e-01 7.74603219e-01
-5.49607922e-01 1.01596322e-02 -8.35361047e-01
6.88576215e-01 6.03888528e-01 4.01474183e-01
7.72559363e-01 -6.23310706e-01 -1.20975623e-01
1.19604333e-01 6.20960896e-01 -7.74662888e-01
-3.13948680e-02 9.25468128e-01 -3.77522979e-01
8.88471600e-01 4.36939031e-01 1.40365136e-01
5.39806492e-01 4.51335979e-01 7.10566584e-01
8.38352073e-01 9.87386803e-02 5.36112131e-01
-1.11872056e-01 9.55678786e-01 2.72329408e-01
8.68968669e-01 -4.93389568e-01 -3.82038285e-02
-9.97805282e-01 -5.95259826e-02 2.90116580e-02
4.18383893e-01 3.69803552e-01 8.29578420e-01
3.44626323e-01 7.23936946e-01 -5.97618770e-01
-6.29849233e-01 -1.31990155e-01 7.65420677e-01
-8.16235196e-01 -5.76496831e-01 -3.75704161e-02
-8.08737517e-01 5.81378922e-01 8.91227166e-02
-7.69969376e-01 -3.84102406e-01 -5.09521906e-01
-8.51823252e-01 -5.06627118e-01 1.33139808e-01
7.37410730e-01 -2.08139191e-01 -6.42575286e-01
-5.82762570e-01 1.98490943e-01 -7.88028820e-01
8.85569381e-01 8.19370725e-02 -4.57222930e-01
3.09987958e-01 6.93186502e-01 6.50692133e-01
9.67971798e-01 1.99192384e-01 -1.52815808e-01
5.21926003e-01 8.11103881e-01 -2.64015046e-01
-4.73081854e-01 -4.71378076e-01 -7.44309170e-01
-2.97375416e-01 5.91099405e-01 7.49779890e-01
-2.59287523e-01 8.86215951e-01 3.83916540e-01
7.44076284e-01 4.14155729e-01 -5.24237901e-01
2.05428462e-01 -6.40180271e-01 -7.40248508e-01
2.83535107e-01 2.75721864e-01 9.18469060e-01
7.50309590e-01 6.58024855e-01 -6.35519103e-02
-5.20763825e-01 -8.47375506e-01 -1.03728167e-01
-9.05890724e-01 -2.48894314e-01 3.42657117e-01
5.36146372e-01 3.03161778e-01 -7.87806999e-01
-2.88994016e-01 -9.36913787e-01 1.96658678e-01
1.41578356e-01 7.59357136e-01 6.35084822e-01
5.00836886e-01 -1.79069144e-01 8.46815457e-01
2.77663255e-01 -4.93486543e-01 -8.24241273e-01
-2.17793181e-01 8.90918104e-01 -3.98536843e-01
-8.51029798e-01 -1.46760047e-01 5.04192527e-01
-5.33504626e-01 -5.90355741e-01 -6.05683711e-01
-4.35731678e-01 3.17915115e-01 -8.42061857e-01
-7.68084055e-01 -4.08341974e-02 6.39046024e-01
-6.45984477e-01 5.97156030e-01 -4.75509514e-01
3.40490676e-01 -8.07051247e-02 9.36777817e-01
-1.12013428e-01 8.35693332e-01 -5.37652407e-01
1.57109688e-01 3.22711312e-01 -9.33367012e-01
4.15129022e-01 -7.88879862e-01 -4.53139933e-01
1.30745440e-01 9.91288327e-01 -1.59241241e-02
-2.89273374e-01 9.34184874e-01 2.08854498e-01
9.86337018e-01 1.61307921e-01 3.34470953e-02
7.27489502e-02 -9.83708353e-01 1.64392523e-01
-2.75410799e-01 1.18476901e-01 -9.53998015e-01
8.40276046e-01 -4.04351788e-01 3.61158198e-01
-5.68949033e-01 -3.03862909e-01 -7.64175592e-01
1.43739410e-01 -5.38329466e-01 8.30385503e-01
9.61706920e-03 6.69351705e-01 7.42883736e-01
1.73313776e-01 7.46365218e-01 -6.42574181e-01
5.65167516e-01 -8.15338776e-01 1.25728570e-01
4.13929563e-01 8.35435862e-01 3.61537767e-01
-7.34971659e-01 -6.70431541e-01 1.01676759e-01
8.98518604e-01 -2.95136549e-01 -3.24897141e-01
2.99181653e-01 6.07532819e-01 -7.35795048e-01
-5.60390176e-01 8.27699738e-01 -2.96090398e-02
-7.82305557e-01 4.44429008e-01 4.36441862e-01
5.97870736e-01 7.95349606e-01 -9.98487050e-02
2.40509861e-01 4.72469590e-01 -8.47895969e-01
-6.87190273e-01 4.32425941e-01 -5.83761780e-01
-1.68369884e-01 7.03318721e-01 6.90648165e-01
4.21238824e-01 4.50106855e-01 -7.87376446e-01
-3.94726314e-01 -3.41762515e-01 -8.52871280e-01
5.23591406e-01 -4.91279965e-01 6.96057182e-01
4.92742186e-01 8.69130647e-01 4.26301825e-02
5.31783039e-01 -7.86631273e-01 3.13715478e-01
8.34125017e-01 -1.06304247e-01 5.41234232e-01
-9.69350140e-01 -1.58084479e-01 1.88069006e-01
3.57514206e-01 5.34413402e-01 7.65889106e-01
1.73590814e-01 -8.65424323e-01 4.70006869e-01
7.37805747e-01 -5.99153004e-01 -3.10898176e-01
5.97710235e-01 4.33888892e-01 -6.74153414e-01
4.01094240e-01 -9.00461259e-01 -1.68202974e-01
2.02634941e-01 -9.58142307e-01 -2.02241837e-01
7.28199370e-01 -3.96495432e-01 -5.59031719e-01
-4.47587209e-01 -8.46693704e-01 -2.87706721e-01
-4.63046888e-01 -2.11780539e-01 8.60660645e-01
-3.18553648e-01 9.14455808e-01 -2.49589206e-01
7.64523802e-01 4.50075119e-01 4.61449572e-01
-9.51129845e-01 1.92689273e-01 -2.41295168e-01
2.86591463e-01 8.13400356e-01 5.06207043e-01
-8.82761578e-01 -3.05913671e-02 -4.68824578e-01
-7.00913935e-01 6.81065073e-01 2.11827110e-01
-5.93775101e-01 4.30536076e-01 6.79757586e-01
4.24004718e-01 8.96375146e-01 -1.29351848e-01
2.62651192e-01 -1.70465309e-01 -9.49713448e-01
2.18461957e-01 -9.26726377e-01 3.05699220e-01
1.66920119e-01 -3.51312852e-01 -9.21258161e-01
9.09633294e-01 1.86350627e-01 3.71268718e-01
5.51925725e-01 -8.29580901e-01 -8.46924645e-02
-3.46260193e-01 -8.27552928e-01 -4.41881973e-01
-1.37343735e-01 9.63887588e-01 -2.28162202e-01
9.60805372e-01 -1.37451726e-01 -2.40747888e-01
9.15719801e-01 2.31626367e-01 -3.28338508e-01
1.66443646e-01 -3.18402304e-02 9.85536765e-01
7.87728168e-01 -6.10061157e-01 8.54929581e-02
-8.73539381e-01 -3.38478638e-01 -3.49801827e-01
-7.96608081e-02 -7.57368453e-01 6.48110218e-01
7.19284739e-02 8.52579412e-01 -5.17624417e-01
-7.73450663e-01 4.73342742e-01 -4.21570017e-01
6.25879860e-01 -3.49487584e-01 -6.97231884e-01
6.50073168e-01 -7.31285611e-01 -2.06459496e-01
-5.48313894e-01 5.56041946e-01 -6.24635667e-01
1.84316306e-01 6.13677935e-01 7.67741640e-01
5.01979523e-01 -8.15530867e-01 -2.87967475e-01
1.84223811e-01 -2.17764978e-01 9.58457036e-01
8.02699133e-01 5.27560619e-01 2.78125636e-01
7.72695530e-01 -5.66158909e-01 2.87062859e-01
-8.49605864e-01 -4.23840262e-01 3.13894040e-01
-3.59424816e-01 -7.74649309e-01 5.20319154e-01
-9.58357977e-02 -5.15033443e-01 -8.51795590e-01
5.94188403e-01 -7.00935240e-01 -3.94498730e-01
9.69870213e-01 8.78437043e-02 2.27233153e-01
-8.03519650e-01 2.97006681e-01 -5.15891140e-01
9.75927552e-01 -1.88409821e-01 1.09848241e-01
-7.79536194e-01 -7.76697297e-02 -6.21523105e-01
8.21943944e-01 -6.26415900e-02 -5.66112834e-01
7.05196441e-01 -1.54342265e-02 -7.08843696e-01
1.62199213e-02 -6.52451804e-01 -7.57656331e-01
-3.47489984e-02 2.00522465e-01 9.79072758e-01
-4.05257907e-01 7.93355356e-01 4.54262003e-01
-3.50318321e-01 -9.25816924e-01 -1.41914479e-01
6.34672057e-01 -9.31427114e-02 7.67147679e-01
-9.40339426e-01 -2.90621768e-01 -1.76920830e-01
-6.68224312e-01 -5.45957527e-01 -5.05377665e-01
-1.64237795e-01 -8.61578941e-01 -4.80319916e-01
1.75716936e-02 -9.83308489e-01 -1.81094113e-01
-9.82205615e-02 1.37041432e-01 -9.85683719e-01
4.81295160e-01 -7.28356111e-01 4.87700499e-01
7.34361977e-02 -3.64483832e-01 9.28309492e-01
-6.09195300e-01 -5.47863233e-01 5.73347168e-01
6.86322378e-01 3.84838405e-01 6.17139345e-01
-5.33128787e-02 9.97001022e-01 -5.61005524e-02
-2.46216471e-01 -7.54139753e-01 -6.08810571e-01
-1.89043755e-01 7.19482541e-01 -6.68287178e-01
9.22808533e-01 -3.01224999e-01 2.40181947e-01
6.72832220e-01 -4.09043484e-01 6.16424993e-01
-2.86036903e-01 -4.95146508e-01 -8.20373450e-01
4.72034744e-01 6.04180801e-01 6.41988280e-01
5.05934407e-01 6.80139358e-01 -5.30510075e-01
-5.29796436e-01 -7.32560373e-01 -4.27400068e-01
3.15685845e-01 9.48739505e-01 1.53685740e-02
7.27872361e-01 2.01323433e-01 6.55492609e-01
-9.77670772e-01 3.18370546e-02 2.07717890e-01
5.73847059e-01 -5.17018702e-01 -6.35130395e-01
-4.15343017e-01 -9.08892417e-01 3.74757116e-02
-6.45493273e-01 -1.26873432e-01 -7.53154502e-01
2.86549555e-01 -9.57109424e-01 -4.27813374e-02
-6.55921357e-01 5.04948650e-02 7.53138648e-01
1.96155669e-01 9.66500282e-01 1.65531352e-01
-5.85702278e-01 -8.07607412e-01 6.87234993e-02
5.34651222e-02 9.77393196e-01 -2.04559341e-01
-5.13424089e-01 -4.73752466e-01 7.15509839e-01
-2.19581035e-01 8.09591081e-01 5.44377670e-01
-9.29189129e-01 -1.65507965e-01 -3.30476860e-01
-9.89981415e-01 7.95775011e-02 -1.16639101e-01
8.69499549e-01 -4.65139549e-01 1.66177961e-01
2.17763122e-01 -8.45820252e-01 -4.86997652e-01
9.55970232e-01 4.97800507e-02 -2.89210047e-01
-6.53495423e-01 7.37941052e-01 -1.68485649e-01
-4.27258509e-01 -6.26356996e-01 6.52017620e-01
1.55700232e-01 9.24652771e-01 -3.47527130e-01
-8.37368950e-03 -2.86544274e-02 -9.99554250e-01
8.41446194e-01 4.03182746e-01 -3.59738522e-01
-6.50431736e-01 5.30939841e-01 5.43177751e-01
-2.45907913e-01 9.66853772e-01 -6.87293301e-02
-6.28056001e-01 -7.41657546e-01 2.35562359e-01
9.06962240e-01 -1.04216210e-01 -4.08115166e-01
-9.52793582e-01 2.39068254e-01 1.87166564e-01
-7.75791440e-01 1.47219482e-01 6.13575211e-01
4.38641788e-01 -1.41246576e-01 -8.87492217e-01
-6.42618717e-02 6.11381665e-01 -7.88722490e-01
8.30149185e-01 2.57574764e-01 -4.94476805e-01
1.43006191e-01 1.51802588e-01 9.78010899e-01
-7.21227937e-01 -2.57558429e-01 -6.43035013e-01
-1.73848863e-01 9.80840752e-01 8.79125779e-02
3.90021963e-01 -6.05127667e-01 -6.94048129e-01
3.21027836e-01 9.77917527e-02 9.42007381e-01
8.71881770e-01 3.62475186e-01 3.29292840e-01
7.00999744e-01 2.84520607e-01 -6.53947382e-01
5.68025198e-01 7.28095926e-01 3.83697658e-01
-8.44784812e-01 2.51279407e-01 4.72438175e-01
-6.92408684e-01 5.96821332e-02 -7.19033047e-01
-5.81563176e-01 -3.08416021e-01 7.52770868e-01
-2.48978513e-01 4.30271929e-01 8.67684387e-01
1.44640593e-02 -1.70952486e-01 9.85173096e-01
9.97241823e-01 -1.33247901e-02 7.30120950e-02
