2.38593328e-01 -1.26711967e-01 9.62817320e-01
-6.89679062e-01 -1.25052662e-01 7.13235063e-01
2.05512479e-01 1.89145505e-01 -9.60202519e-01
-6.29870602e-01 5.66479782e-01 -5.31379168e-01
-8.89499417e-01 4.40733712e-01 -1.20600684e-01
-1.17726841e-01 -7.32541685e-01 -6.70464597e-01
5.90905385e-01 5.60405758e-01 -5.80324684e-01
3.09555393e-01 -6.06185111e-01 7.32608208e-01
-6.69395130e-01 -6.93537329e-01 -2.66299888e-01
-1.26294371e-02 -3.56534688e-01 -9.34196694e-01
-9.91892283e-01 2.68888330e-02 1.24202954e-01
7.32716683e-01 -3.19481583e-01 6.00880838e-01
-8.94004538e-01 -6.68636688e-02 4.43040364e-01
-3.33977489e-01 -6.31494022e-01 6.99766992e-01
-4.38908273e-01 6.88802368e-01 5.76984347e-01
-9.60149720e-02 8.02905678e-01 5.88322930e-01
3.58442531e-01 -5.95465301e-01 -7.18985364e-01
-2.23835740e-01 3.60141859e-01 9.05646390e-01
4.41936690e-01 5.40210032e-01 -7.16146333e-01
5.21149510e-01 -5.54641752e-01 -6.48672261e-01
9.86731749e-02 -9.73737940e-01 -2.05177065e-01
-6.60322780e-01 -3.49404485e-01 -6.64748107e-01
-2.47056410e-01 5.44571854e-01 -8.01501659e-01
1.91948396e-01 9.66470418e-01 -1.70561671e-01
2.39881659e-01 9.28186836e-01 2.84475769e-01
-5.92189531e-01 5.92861569e-01 5.45735047e-01
6.33451669e-01 7.71692747e-01 5.68317175e-02
2.63890583e-01 -4.67736892e-01 -8.43554345e-01
5.88934925e-01 -6.21963035e-01 5.16059554e-01
-6.50674037e-01 -4.78631297e-01 5.89520883e-01
8.38801512e-01 -3.33333015e-01 4.30466231e-01
-1.89130403e-01 -5.49439852e-02 -9.80413633e-01
-9.77653564e-01 -1.89744933e-01 -9.04985238e-02
7.98291752e-01 -8.43552658e-03 6.02211997e-01
-7.30516219e-01 6.78426749e-01 7.79953875e-02
2.71797819e-01 -7.31327856e-01 -6.25528045e-01
-2.24143642e-01 -6.08680968e-01 -7.61095821e-01
7.89347019e-02 -4.94466775e-01 -8.65604890e-01
-2.04273370e-02 -6.25187670e-01 -7.80206961e-01
-4.00494018e-02 -9.95003752e-01 9.14499038e-02
-6.17628332e-01 1.62767616e-01 -7.69442609e-01
-7.31397076e-01 2.27389325e-01 -6.42924858e-01
8.63691812e-01 -3.02561800e-02 -5.03111659e-01
-3.72512086e-02 4.26617324e-01 9.03664804e-01
-9.55566931e-01 -1.10048584e-01 2.73460711e-01
-4.90378005e-01 -7.83859032e-01 3.80911875e-01
-5.58573403e-01 -2.24518168e-01 7.98490426e-01
-7.99480502e-01 -1.98899832e-01 5.66806284e-01
-4.13891089e-01 9.03945772e-01 1.07594100e-01
5.22041319e-01 5.01937364e-01 6.89588323e-01
-5.44256210e-01 -8.38707395e-01 1.88285487e-02
-2.64568283e-01 -8.97724994e-01 -3.52268361e-01
-6.38364738e-01 -7.00723432e-01 3.18553857e-01
1.08944623e-01 6.41192513e-01 -7.59607574e-01
4.52501590e-01 6.72980918e-01 -5.85097882e-01
1.29625117e-01 7.68286752e-01 -6.26843905e-01
3.91967786e-01 6.37886646e-01 6.62919467e-01
-2.38742974e-01 9.64707190e-01 1.11095433e-01
-1.74780919e-01 5.31527848e-01 8.28812322e-01
9.87158259e-01 -6.19475897e-02 -1.47245944e-01
-8.65593412e-01 -4.99880767e-01 -2.94407722e-02
-1.42192044e-01 -7.14522881e-01 6.85009492e-01
9.97397400e-01 -5.69021166e-02 4.42815672e-02
9.24049414e-01 -3.77953012e-01 5.73088657e-02
-4.23475034e-01 8.13084283e-01 -3.99453559e-01
-3.15341046e-01 9.47065956e-01 -6.02200518e-02
5.26639421e-01 2.39006656e-02 8.49752755e-01
4.36000987e-01 -1.02427683e-01 -8.94098381e-01
7.13140208e-01 -1.59543333e-01 6.82625101e-01
8.38415474e-01 -5.43446931e-01 -4.15323911e-02
-7.27281323e-02 -3.30569312e-01 9.40975158e-01
-6.41496526e-01 7.64529137e-01 -6.30679981e-02
-4.84768214e-01 8.72286128e-01 -6.41635163e-02
4.09734990e-01 -8.72184283e-01 -2.67229427e-01
6.71445994e-01 1.27121793e-02 7.40944532e-01
8.41817990e-02 -1.80496679e-01 -9.79966552e-01
-3.15260291e-01 2.02885240e-01 -9.27064531e-01
9.00184044e-01 2.81233115e-01 -3.32531325e-01
1.63488364e-01 7.41549412e-03 -9.86517485e-01
-8.77894633e-01 3.64185198e-01 -3.10918140e-01
-7.02323284e-02 6.11104167e-01 -7.88428491e-01
-6.28640140e-02 -9.94451866e-01 -8.43393381e-02
-1.59173455e-01 1.20417318e-01 -9.79879388e-01
-3.44500118e-01 2.00948334e-02 -9.38571196e-01
5.78848270e-01 4.14597880e-01 -7.02170740e-01
-3.25911821e-01 7.66726075e-01 -5.53093972e-01
-9.47843585e-01 2.67132039e-01 -1.73875997e-01
9.19038799e-01 -1.90888038e-01 3.44861707e-01
4.62141426e-01 -4.74202344e-01 7.49371245e-01
2.54611236e-02 1.58363323e-01 -9.87052684e-01
6.61851668e-01 7.12051077e-01 2.34384614e-01
-2.01934900e-01 9.53694317e-01 -2.22912226e-01
-5.74170960e-01 -2.32563959e-01 -7.85010525e-01
-8.80268022e-01 -2.47188568e-01 4.05000710e-01
-8.34787276e-01 -3.72150925e-01 -4.05750547e-01
1.71819008e-01 -8.35179861e-01 5.22448486e-01
4.31743927e-01 -4.34750680e-01 -7.90309472e-01
-4.84408022e-01 6.78740423e-01 -5.51960638e-01
7.77268886e-01 5.74121629e-01 2.57367276e-01
-9.72256635e-01 8.73300025e-02 -2.17002925e-01
9.93108077e-01 1.03113089e-01 -5.57172010e-02
8.32707538e-01 -1.74530494e-01 5.25487749e-01
3.18775807e-01 -7.44606105e-01 5.86466884e-01
-5.60876009e-01 7.17443493e-01 4.13150148e-01
-1.55399395e-01 8.28896396e-01 -5.37384597e-01
2.79972639e-01 9.59957632e-01 -9.85945972e-03
-8.41906246e-01 -4.24602971e-01 3.33025046e-01
1.61893186e-01 4.78633925e-01 8.62960211e-01
-7.65729636e-01 -5.95247854e-01 2.43593027e-01
1.09645035e-01 3.23084449e-01 9.39997058e-01
2.03235276e-01 8.65356799e-01 -4.58097768e-01
5.69747917e-01 -7.96334186e-01 -2.03073891e-01
2.44300903e-01 -9.11648831e-01 -3.30474157e-01
7.33089518e-01 1.68879379e-01 6.58832102e-01
-4.02063657e-01 8.05236013e-01 4.35821037e-01
-4.88067134e-01 9.23850731e-02 -8.67902918e-01
-2.34748006e-01 8.65957840e-01 4.41600125e-01
3.91561273e-01 9.08671810e-01 -1.44899557e-01
-7.77306937e-01 -3.74607210e-01 5.05433356e-01
-9.13511732e-01 2.56966613e-01 3.15379560e-01
2.65249917e-01 -1.44979775e-01 -9.53217439e-01
-7.34984892e-01 3.93286882e-02 -6.76941901e-01
5.73207262e-01 -1.52530018e-01 8.05088835e-01
1.95205689e-01 4.51054974e-02 9.79724547e-01
4.60335358e-01 -8.82156696e-01 9.94516825e-02
5.99561942e-01 -3.20991730e-01 7.33136910e-01
-4.16183182e-01 4.49819053e-01 -7.90224375e-01
-9.22283387e-01 -2.71395474e-01 -2.75204412e-01
4.60952409e-01 -7.51959833e-01 4.71252603e-01
-6.34852754e-01 2.44609561e-01 7.32890144e-01
-4.58180297e-01 2.76345790e-01 -8.44809988e-01
-4.06308399e-01 -3.18012635e-01 8.56610214e-01
-5.82075091e-01 -5.26174840e-01 -6.19942155e-01
-7.86737618e-01 -2.70593645e-01 -5.54817715e-01
-4.47750608e-01 -7.08781537e-01 5.45112447e-01
-4.63681898e-01 5.46429992e-01 6.97433425e-01
-7.20848527e-01 -4.57302201e-01 -5.20818320e-01
-2.82501661e-01 -7.59923383e-01 5.85413308e-01
-5.02569915e-01 -5.64560244e-01 6.54747815e-01
7.11900661e-01 4.28095594e-01 -5.56715466e-01
-4.99983004e-01 3.59301394e-01 7.87984399e-01
8.65743605e-01 4.18856789e-01 2.73947870e-01
5.98716404e-01 -8.00650132e-01 -2.23124972e-02
-1.69854270e-01 -9.19238531e-01 3.55175332e-01
-8.27808706e-01 4.41742413e-01 3.45826965e-01
-3.48959231e-01 4.59340022e-01 8.16844048e-01
9.11623862e-01 -3.92062477e-01 -1.23406106e-01
-2.59697907e-01 8.82253387e-01 -3.92665689e-01
4.90994243e-01 8.24475016e-01 -2.81364856e-01
4.17794822e-01 3.91243892e-01 -8.19985443e-01
-2.51006927e-01 -9.51741834e-01 -1.76585668e-01
2.86619629e-01 6.47821798e-01 -7.05816261e-01
7.28823684e-01 -4.67724936e-01 5.00049363e-01
-3.82989072e-01 -9.19295837e-01 9.06309459e-02
-6.20315940e-03 -8.31851738e-01 -5.54962958e-01
7.26149493e-02 9.96780210e-01 -3.40114611e-02
-5.76865110e-01 8.10750007e-01 9.95553017e-02
4.73011612e-01 8.80826995e-01 2.01092494e-02
-9.97992468e-01 -1.72498183e-02 -6.09357284e-02
-3.74568939e-02 -4.95285561e-01 8.67922137e-01
-9.63714404e-01 -9.24366557e-02 -2.50419046e-01
9.00911636e-01 -2.60777336e-02 4.33218641e-01
7.66479700e-01 6.36785662e-01 8.37461640e-02
-7.04874070e-01 6.02609827e-01 -3.74184517e-01
-5.53459763e-01 -3.77943360e-02 8.32017775e-01
-6.31129954e-01 -6.24298933e-01 -4.60353550e-01
-9.66298070e-01 2.08209374e-01 1.51382533e-01
4.18095926e-01 7.49248675e-01 5.13636679e-01
1.47643487e-01 -5.58487953e-01 8.16267287e-01
-8.24891871e-01 -7.67083730e-02 -5.60061607e-01
6.65680429e-01 -1.97132845e-01 -7.19728017e-01
-4.68095973e-01 -1.09613646e-01 -8.76852852e-01
-5.26015346e-01 1.53402415e-01 8.36525763e-01
-3.15919283e-01 -7.07366373e-01 -6.32319121e-01
-7.54427694e-01 -5.51789293e-01 -3.55481333e-01
5.12528311e-01 -7.68242771e-01 -3.83559153e-01
9.63148738e-01 1.03837502e-01 -2.48118250e-01
-3.24268784e-01 -4.65155283e-01 -8.23699037e-01
8.49294180e-01 1.40323781e-01 5.08929170e-01
-7.79326199e-01 -6.08093732e-01 -1.51235500e-01
-9.51160607e-01 7.19070888e-02 3.00204205e-01
8.77593092e-02 -7.37165691e-01 -6.69988667e-01
4.00929461e-01 8.07604308e-01 -4.32471286e-01
8.08317332e-01 -5.46368671e-01 -2.19327134e-01
3.49502261e-01 -8.19147822e-01 -4.54801932e-01
2.39510833e-01 3.58973440e-01 -9.02093672e-01
-6.84570121e-01 6.94505732e-01 -2.21417431e-01
2.44705437e-01 7.41224372e-01 6.25064817e-01
-4.28604223e-02 7.47603713e-01 -6.62760966e-01
8.16378205e-01 2.81750995e-01 -5.04126432e-01
1.41569285e-01 -9.77343695e-01 1.57343582e-01
-6.60270819e-01 -7.38384346e-01 1.37224011e-01
-3.53473275e-01 -8.96494015e-01 2.67122736e-01
-1.28160605e-02 -2.35201682e-02 -9.99641268e-01
5.01059878e-01 8.78768204e-02 -8.60939588e-01
7.78332528e-01 4.58636439e-01 4.28779078e-01
8.89682409e-01 -2.13782033e-01 -4.03438577e-01
-8.79067573e-01 1.15216102e-01 4.62563692e-01
7.15358704e-01 -6.85387982e-01 -1.36033668e-01
-1.52817203e-01 9.49045327e-01 2.75608841e-01
1.75703877e-01 -3.28582148e-01 -9.27988115e-01
-4.97483604e-01 8.24799776e-01 2.68729588e-01
-3.06284927e-01 -1.83033960e-01 -9.34177741e-01
-3.82751757e-01 -8.00033074e-01 -4.62004043e-01
-7.76240976e-01 4.51333016e-01 -4.40168696e-01
1.58877745e-02 -7.88996326e-01 6.14192095e-01
1.52387967e-02 -8.96912400e-01 4.41945075e-01
8.72091108e-01 -3.88220930e-01 -2.97895517e-01
-9.28066283e-01 -2.90047754e-01 2.33591129e-01
-1.28294869e-01 6.80393744e-01 7.21529602e-01
1.76505253e-01 -8.39824469e-01 -5.13361941e-01
-3.76011159e-01 -4.83657106e-01 7.90373939e-01
-3.80207536e-01 6.16640200e-01 -6.89345598e-01
-3.99422418e-01 5.67307238e-02 9.15009912e-01
6.75662410e-01 6.12194132e-01 4.10729959e-01
-1.02767525e-01 -1.51652461e-01 9.83076871e-01
5.83389409e-01 -3.89134050e-01 -7.12903627e-01
-9.26350022e-01 -3.57798887e-01 -1.17707891e-01
8.42114984e-01 -5.21522144e-01 1.37320821e-01
-4.84219564e-01 -6.76753823e-01 -5.54558633e-01
2.74830858e-01 -2.92646480e-01 9.15874373e-01
2.74729799e-01 -9.50256546e-01 -1.46750441e-01
-5.85404685e-01 3.43194483e-01 -7.34519553e-01
8.74569970e-01 4.72665201e-01 1.08237973e-01
-3.82073803e-01 2.63366969e-01 8.85808860e-01
3.10021002e-01 -9.24631738e-01 2.21230105e-01
1.18305320e-01 -4.01042224e-01 9.08387977e-01
-8.53076572e-01 -4.63084852e-01 -2.40441941e-01
4.47443680e-01 -3.12010578e-01 8.38118987e-01
3.01536262e-01 -4.52076953e-01 8.39465356e-01
-5.40397564e-01 -4.02517584e-01 7.38884031e-01
4.14649882e-01 -1.42494793e-01 8.98755059e-01
2.26882142e-02 8.62524328e-01 -5.05507180e-01
-6.74951528e-01 5.95382976e-02 7.35455876e-01
-2.71833425e-01 7.58984403e-01 5.91649778e-01
-8.33031360e-01 2.96999356e-01 4.66743991e-01
-5.08987643e-01 -4.16585316e-01 -7.53251615e-01
6.93564216e-01 5.82204573e-01 -4.24272391e-01
5.49388632e-01 2.56982692e-01 -7.95067560e-01
5.49610027e-01 7.43894079e-01 3.80198490e-01
1.27530968e-02 5.79162552e-01 8.15112426e-01
2.97338621e-01 -9.54067852e-01 3.66594818e-02
-8.68344216e-01 -4.70611011e-01 1.56534608e-01
-7.26636919e-01 4.73060226e-01 4.98209534e-01
1.63911777e-01 -7.10159417e-01 6.84694208e-01
9.46907712e-01 -2.27319641e-01 -2.27358278e-01
6.38148982e-01 3.41880042e-01 6.89843595e-01
-6.78956050e-01 -7.31737525e-01 -5.98191136e-02
-1.30768396e-02 -9.63154763e-01 2.68628749e-01
4.43621678e-01 -8.92262567e-01 -8.40657381e-02
9.84836756e-01 1.03216500e-01 1.39439088e-01
9.37963292e-01 2.73659767e-01 2.12921564e-01
-3.76856400e-01 8.96694892e-01 -2.32202193e-01
-9.41677684e-01 3.36165228e-01 1.53603077e-02
7.18036921e-01 -3.31201051e-01 -6.12151120e-01
-1.00779625e-01 -9.01257748e-01 -4.21399499e-01
7.68560988e-01 3.17291492e-01 5.55554170e-01
-8.55291030e-01 5.15739989e-01 4.98947454e-02
-7.76089330e-01 1.55720561e-01 6.11094272e-01
4.57716194e-01 -6.24088847e-01 6.33252528e-01
-7.10958136e-01 -1.57495929e-01 -6.85370960e-01
9.73381626e-01 -2.25096166e-01 -4.31292460e-02
-3.02949638e-01 6.25671441e-01 7.18858032e-01
3.36551009e-01 4.61304758e-02 -9.40534767e-01
7.11305381e-01 6.95955230e-01 -9.84456103e-02
-9.83860752e-01 -1.52194349e-01 9.40983879e-02
6.04889607e-01 -7.80288791e-01 1.58926924e-01
-8.39761623e-01 1.08100592e-01 -5.32085082e-01
8.06540962e-01 4.39719272e-01 -3.95144468e-01
5.58127270e-01 7.05815790e-01 -4.36255185e-01
7.93931257e-01 1.24196435e-01 -5.95188030e-01
-1.29095144e-02 9.80482022e-01 -1.96185710e-01
3.35632647e-02 9.64619165e-01 2.61502974e-01
-1.23009611e-01 -4.92424145e-01 -8.61618790e-01
8.65994772e-02 8.21285304e-01 5.63907193e-01
2.07838148e-01 6.19309343e-01 7.57139024e-01
-8.81849607e-02 2.55900848e-01 9.62672393e-01
4.83830987e-01 3.58086219e-01 7.98549969e-01
3.67199403e-01 3.43864436e-02 9.29506418e-01
-7.29846637e-01 -5.40804838e-01 4.18154845e-01
9.67419490e-01 -2.05808768e-01 1.47453281e-01
-2.15023377e-01 6.96187301e-01 -6.84900386e-01
-8.38588203e-02 -9.63080852e-01 -2.55817362e-01
1.58718834e-01 9.79339457e-01 1.25311835e-01
-1.32356729e-01 9.89778322e-01 -5.31131120e-02
9.63432810e-01 2.64589151e-01 4.23110365e-02
7.35553041e-02 -9.20978092e-01 -3.82607644e-01
-5.36296230e-01 -7.57981976e-01 -3.71280487e-01
7.51337810e-01 -5.31551226e-01 -3.91081611e-01
-1.01983547e-01 -2.09657470e-01 -9.72441822e-01
-5.17695545e-01 -8.30496782e-01 2.05586568e-01
5.21938861e-01 8.29463961e-01 1.98921826e-01
6.44506077e-01 7.13662708e-01 -2.74404867e-01
-2.18036649e-01 -3.44656915e-01 -9.13056142e-01
7.02665112e-01 -6.00727636e-01 3.81297700e-01
-9.56665214e-02 4.57289861e-01 -8.84157339e-01
-1.24526021e-01 2.91143037e-01 -9.48540576e-01
2.67354537e-01 5.12137385e-01 -8.16233596e-01
-8.10334338e-01 5.29610292e-01 -2.50741354e-01
9.53048361e-01 2.59810414e-01 -1.55556461e-01
5.89363992e-01 -7.33409357e-01 3.38763333e-01
9.36450624e-01 1.22728078e-01 3.28631036e-01
-4.13468146e-01 -1.35855313e-01 9.00326116e-01
5.98972565e-01 -6.40251045e-01 -4.80947414e-01
2.70959054e-01 8.40316064e-01 4.69521590e-01
-2.77309418e-01 3.77098662e-01 -8.83683366e-01
8.70874263e-01 2.84139744e-01 4.01052340e-01
-8.88227583e-01 -1.77799805e-01 -4.23602031e-01
-6.92665077e-01 4.02253868e-01 -5.98671000e-01
-1.88213803e-01 -5.72361872e-01 7.98108400e-01
-2.00884096e-01 -9.62924159e-01 1.80061386e-01
5.55049036e-02 7.11975769e-01 7.00007123e-01
6.64995098e-01 4.83628943e-01 5.69108890e-01
-2.28522994e-01 -9.73537461e-01 1.23339128e-03
1.42837370e-03 -6.47296179e-01 7.62236979e-01
6.69305202e-01 -6.74817178e-01 -3.10889457e-01
-2.27620738e-01 -4.13740840e-01 8.81479969e-01
-8.23393162e-01 2.85780819e-01 -4.90258058e-01
8.06707773e-01 -3.68592920e-01 -4.61911213e-01
1.14738106e-01 9.05126918e-01 4.09366387e-01
-7.83670846e-01 6.15181685e-01 -8.60903806e-02
-9.13926905e-01 1.87667916e-01 -3.59886391e-01
-4.16966479e-01 -5.72964256e-01 -7.05585294e-01
7.43373243e-01 -3.55700195e-02 -6.67930610e-01
-8.00570365e-01 -2.07163234e-02 5.98880276e-01
-4.07020177e-01 -9.08954578e-01 -9.01975883e-02
4.63188433e-02 -5.37051204e-02 9.97481922e-01
4.58192769e-01 -8.41977443e-01 2.84838696e-01
6.04959102e-01 -4.78275542e-01 6.36613598e-01
8.63402687e-02 4.95313278e-01 -8.64413378e-01
5.17537295e-01 -2.48791586e-01 -8.18692890e-01
-9.17096193e-01 5.97675872e-03 -3.98620895e-01
2.98684902e-01 7.64190428e-01 -5.71664978e-01
-3.30307298e-01 9.02021487e-01 2.77947136e-01
7.34391494e-01 -6.77566180e-01 3.96624622e-02
8.25828004e-01 5.59210512e-01 -7.27478157e-02
-7.04881607e-01 6.01948268e-01 3.75233549e-01
-6.54138728e-01 7.16663925e-01 2.41858313e-01
-6.80991894e-01 -3.07087748e-01 6.64790726e-01
-4.13809679e-01 -3.03761263e-01 -8.58190237e-01
3.02151193e-01 9.03363418e-01 -3.04367793e-01
-7.25632770e-01 3.27946006e-01 6.04903585e-01
9.06124443e-01 -3.48033478e-01 2.40439769e-01
-6.03857378e-01 4.44537833e-01 6.61620975e-01
3.81247246e-01 2.27553143e-01 -8.96030384e-01
-6.17323515e-02 8.99170773e-01 4.33222097e-01
3.08815126e-01 3.63083778e-01 8.79092454e-01
4.03225840e-01 8.50444964e-01 3.37865016e-01
8.97173025e-01 1.24486430e-01 -4.23773630e-01
-2.57697810e-01 -4.65581339e-02 9.65103077e-01
-8.32878454e-02 9.25522892e-01 -3.69419775e-01
8.03862797e-01 -1.82906518e-01 -5.65994744e-01
3.53869867e-01 5.07675062e-01 7.85520463e-01
-6.11226273e-01 -3.50740680e-02 -7.90678283e-01
9.68299086e-01 -4.53052087e-02 2.45651316e-01
-8.99478704e-01 3.95696917e-01 1.85369601e-01
7.71737029e-01 5.82927060e-01 -2.54201792e-01
3.58701843e-01 9.20770095e-01 1.53349102e-01
5.92292742e-01 1.89047286e-01 7.83230876e-01
-5.72295653e-01 7.19384347e-01 -3.93654743e-01
-7.77731287e-01 -6.25844858e-01 5.87512638e-02
8.38494624e-02 -2.33437330e-01 9.68749746e-01
-5.97401123e-01 -6.35148270e-01 4.89589647e-01
1.80633371e-01 -6.17452779e-01 -7.65587040e-01
5.93512621e-01 -5.65231244e-02 -8.02837574e-01
6.97394755e-01 2.73464816e-01 -6.62463572e-01
-2.49662284e-01 1.60361578e-01 9.54962188e-01
5.50993487e-01 6.29211581e-01 5.48178221e-01
-3.22967181e-01 -8.41730029e-01 4.32645586e-01
-1.05613210e-01 5.37284342e-02 9.92954666e-01
7.30338673e-01 -6.49108326e-01 2.12752673e-01
3.19766727e-01 -8.53538634e-01 4.11364418e-01
-2.56110291e-01 -2.39799468e-01 9.36431214e-01
-9.86899152e-01 1.58736790e-01 -2.88524448e-02
2.55603819e-01 2.08415728e-01 9.44049590e-01
-1.36089417e-01 -8.42483824e-01 5.21248663e-01
6.69787948e-01 -4.93988763e-01 -5.54399907e-01
9.41592852e-01 -5.54088244e-02 -3.32164230e-01
5.38995739e-02 1.53141582e-01 9.86733223e-01
-5.35523475e-01 5.12868599e-01 -6.70954968e-01
-5.38339010e-01 8.10320854e-01 -2.31455105e-01
-9.42157986e-01 -3.29866648e-01 5.93789833e-02
8.17533515e-01 -4.81864010e-01 3.15350624e-01
-7.93433915e-01 5.69592793e-01 2.14538255e-01
4.32789461e-01 2.01570764e-01 8.78670943e-01
1.21347345e-01 -9.92304717e-01 -2.46118501e-02
5.69544044e-01 8.13278621e-01 -1.19155548e-01
-2.12580972e-01 -8.17521045e-01 -5.35227324e-01
-5.00014789e-02 9.92969163e-01 1.07296473e-01
4.41565856e-01 -6.99246502e-01 -5.62204417e-01
9.13339789e-01 4.04485562e-01 -4.69291457e-02
-5.58887739e-01 -8.11133177e-01 -1.72356979e-01
-4.19030193e-01 -8.66280872e-01 -2.71975447e-01
1.64999963e-01 -9.25742991e-01 3.40256517e-01
1.01513766e-01 9.38103076e-01 -3.31146632e-01
3.54038870e-01 -2.92394996e-01 -8.88347755e-01
5.87947102e-02 3.32905793e-01 -9.41125503e-01
8.73637061e-01 4.32158413e-01 -2.23602104e-01
6.58717106e-01 1.12044371e-01 -7.44001472e-01
