-6.27303076e-01 5.49653036e-01 5.51699537e-01
6.87036453e-01 -8.43723079e-02 -7.21707860e-01
2.86261903e-01 7.48043926e-01 5.98735663e-01
-8.37558073e-01 -5.09004222e-01 1.98522488e-01
2.95291918e-01 -9.54710878e-01 3.64668858e-02
-9.55669380e-01 1.79905198e-01 2.33088288e-01
-2.68478906e-01 -4.36322790e-01 8.58802362e-01
-3.07838695e-01 -5.89234588e-01 7.47019369e-01
1.21393870e-02 -8.85687029e-01 4.64124042e-01
-3.66185545e-01 -9.30038182e-01 -3.06126895e-02
1.77195686e-01 -7.24779183e-01 6.65805397e-01
3.71967026e-01 2.18601020e-01 -9.02138644e-01
9.67452587e-01 2.15753158e-01 1.32234886e-01
-6.36323947e-01 -6.95686977e-01 -3.33333877e-01
-7.16307866e-02 4.92766907e-01 8.67208044e-01
-1.51563120e-01 -8.82729018e-01 -4.44767483e-01
-1.40743950e-01 -9.66574335e-01 2.14301665e-01
-8.32733477e-01 -7.80145263e-02 -5.48150248e-01
-8.82764977e-01 4.05341073e-01 -2.37538640e-01
-7.12150622e-01 6.82895686e-01 -1.62772745e-01
7.78857313e-01 2.22783425e-01 -5.86300978e-01
-5.95771513e-02 -1.83248496e-01 9.81259672e-01
5.51988929e-02 9.97951686e-01 3.23342666e-02
8.25582224e-02 7.75462423e-01 6.25972968e-01
8.79836359e-01 4.61989615e-01 -1.11595587e-01
3.46373282e-01 -8.46042694e-01 4.05262032e-01
1.80383931e-01 6.64278710e-01 7.25393286e-01
1.32284200e-01 -7.26598929e-01 -6.74206868e-01
-9.52490374e-02 5.20802213e-02 -9.94090177e-01
2.68707298e-01 -2.44691910e-01 9.31623450e-01
-2.70450602e-01 6.37176430e-01 -7.21708160e-01
-6.95394880e-01 2.48739400e-01 -6.74206699e-01
-3.87501347e-01 -6.93914294e-01 -6.06898402e-01
-1.62361955e-01 -8.18086921e-01 5.51699545e-01
-1.81725711e-01 -4.75176782e-02 9.82200503e-01
-7.30790210e-01 -6.56169395e-01 1.88115384e-01
2.38895734e-01 9.70254045e-01 3.91906527e-02
4.52393979e-01 -8.84367164e-01 1.15040936e-01
2.17227813e-01 -9.06847734e-01 -3.61163783e-01
-7.22932601e-01 2.23247759e-02 6.90557782e-01
-2.65871232e-02 7.87516137e-01 -6.15720274e-01
-8.88216972e-01 -7.21202108e-02 4.53728201e-01
-7.57076255e-01 -2.53474718e-01 -6.02151241e-01
-3.03667512e-01 9.52765730e-01 4.84708755e-03
-4.07196715e-01 6.82543516e-01 -6.06898000e-01
9.43308647e-01 -2.89869679e-01 -1.61692215e-01
-7.16275695e-01 2.08933907e-01 6.65804582e-01
9.17517698e-01 -1.90040293e-01 3.49350771e-01
-8.55857846e-01 -2.45634146e-01 -4.55160651e-01
6.94043417e-01 1.29299763e-01 -7.08226880e-01
-4.80138105e-01 -8.11973763e-01 3.31912659e-01
2.99445325e-01 3.84679232e-01 -8.73129080e-01
1.83419957e-01 -4.51668146e-01 -8.73128294e-01
7.66914566e-01 -5.31998096e-01 3.58915141e-01
5.73161202e-01 8.14697490e-01 -8.80580985e-02
-5.47814144e-01 6.95504091e-01 4.64944846e-01
-2.84320006e-01 8.98916652e-01 -3.33333137e-01
3.29477994e-01 -7.49911490e-02 9.41180414e-01
9.38865434e-01 3.44147963e-01 9.68894019e-03
-1.61320886e-01 -7.01138905e-01 6.94535678e-01
9.88529603e-01 1.47892200e-01 -3.06124571e-02
4.03157087e-01 8.28966259e-01 -3.87658743e-01
-2.20619183e-01 9.61864121e-01 -1.61692857e-01
-1.28910616e-01 1.43219147e-01 9.81259557e-01
-2.99385865e-01 9.41202038e-02 9.49478531e-01
-1.90432167e-02 8.63099565e-01 5.04674631e-01
-6.49566256e-01 7.54308571e-02 -7.56553943e-01
-6.68716227e-01 -4.16782516e-01 -6.15719864e-01
3.77605342e-01 9.85166521e-02 9.20710957e-01
1.96919064e-01 2.24720526e-01 -9.54318382e-01
-7.37944187e-01 -4.48042139e-01 5.04674763e-01
5.36606332e-01 2.04367909e-01 -8.18710821e-01
3.23737569e-01 -5.00778050e-01 8.02754838e-01
7.79094173e-01 -5.44157110e-01 -3.11296194e-01
6.95302878e-01 -3.70734133e-01 -6.15719190e-01
7.83197885e-01 -6.06285000e-01 -1.37911494e-01
-8.40012959e-01 5.30966018e-01 -1.11594400e-01
8.62734145e-01 3.20077452e-01 3.91459085e-01
7.59682968e-01 -1.09250969e-01 6.41050709e-01
8.59589165e-01 -4.70844662e-01 1.98523998e-01
-4.82865941e-01 6.69874701e-02 -8.73128380e-01
1.60258613e-01 -9.73492605e-01 1.63184966e-01
-2.94178213e-01 8.89614352e-01 3.49350069e-01
3.23256321e-02 5.35267806e-01 -8.44063642e-01
1.31775233e-01 -9.90499015e-01 -3.93319229e-02
9.43258634e-01 -9.82459924e-03 3.31913581e-01
-8.44181828e-01 -3.98168530e-01 3.58913448e-01
7.53404946e-01 -6.25653164e-01 2.02334158e-01
-3.69350285e-03 -9.96069711e-01 8.84957564e-02
6.31460225e-01 5.74410488e-01 5.20874809e-01
-5.34776872e-01 -4.07639892e-01 -7.40164459e-01
-3.44040071e-01 8.03968801e-01 -4.85046999e-01
-9.50736528e-01 1.08888625e-01 -2.90246999e-01
-3.45343398e-01 -8.09498398e-01 -4.74816063e-01
-1.71391174e-01 -9.85155415e-01 9.68931525e-03
8.67219972e-01 -6.08817467e-02 4.94189166e-01
-2.65104984e-01 -5.23414054e-01 -8.09788298e-01
-8.07945602e-01 2.61841846e-01 -5.27885170e-01
3.22031694e-01 -9.17586380e-01 2.33089750e-01
8.73718001e-01 1.05672266e-01 -4.74815999e-01
-1.03486396e-01 -3.76274554e-01 9.20710607e-01
-1.54172300e-01 -9.07188121e-01 3.91459603e-01
2.71818354e-01 5.30754989e-01 8.02753955e-01
-4.63120292e-01 8.21798739e-01 3.31913265e-01
-1.01352982e-01 9.42506881e-01 -3.18446770e-01
4.30372841e-01 9.02639622e-01 -4.57395143e-03
5.25534031e-01 -1.34511959e-01 -8.40071738e-01
-7.66705730e-01 6.05175116e-01 2.14302104e-01
4.62563016e-01 -1.84348391e-01 8.67208811e-01
5.16328342e-01 -7.63627812e-01 -3.87656576e-01
2.31202309e-01 2.12215659e-01 9.49478802e-01
8.19754792e-01 4.94434635e-01 2.89026759e-01
-8.79230839e-01 9.88567150e-02 -4.66026268e-01
1.81723503e-01 -8.34065220e-01 5.20875976e-01
6.20415194e-01 -2.59310858e-01 -7.40164088e-01
6.46882143e-01 -5.85545556e-01 4.88548767e-01
6.87864289e-01 2.10862551e-01 6.94535599e-01
8.36652506e-01 -5.46778732e-01 3.23358919e-02
5.25226651e-01 7.12007762e-01 -4.66027799e-01
-3.92385166e-01 9.02273725e-01 -1.78706459e-01
-4.58091779e-01 -8.75291237e-01 1.54974771e-01
5.06566027e-01 -7.33157686e-01 4.53729735e-01
-9.97951673e-02 3.22833312e-01 9.41179879e-01
-9.70452306e-01 -2.06269007e-01 -1.25201516e-01
-2.93801507e-01 -8.98662938e-01 -3.25707861e-01
-9.74512097e-01 -1.46919885e-01 1.69530876e-01
3.60020618e-01 9.17411868e-01 1.69530553e-01
-9.13148627e-02 -5.66899288e-01 -8.18710454e-01
8.77317934e-01 -4.56917371e-01 -1.46764326e-01
9.38653005e-01 -1.08050641e-02 -3.44693764e-01
8.27004297e-01 -2.41002222e-01 5.07919109e-01
-1.80617353e-01 -3.96056978e-01 -9.00286762e-01
4.47393386e-01 -2.95630310e-01 -8.44062728e-01
8.66911843e-01 -3.83479071e-01 -3.18445706e-01
5.98054679e-01 -5.28909960e-01 -6.02150203e-01
-5.30140195e-01 -8.47803666e-01 -1.34285080e-02
8.68277373e-01 -1.04037177e-01 -4.85047087e-01
-5.54481087e-01 8.09871579e-01 -1.91464726e-01
-1.97958766e-01 -1.00467284e-01 -9.75048030e-01
-8.56389002e-02 6.66949724e-01 -7.40164876e-01
-9.92129470e-01 8.90226137e-02 -8.80572902e-02
-6.22343184e-01 7.82145685e-01 -3.06117511e-02
5.39687868e-01 8.33968254e-01 1.15038898e-01
3.48802719e-01 7.60175513e-01 -5.48151302e-01
-6.19420429e-01 7.23791647e-01 3.04046002e-01
-2.45994579e-03 6.50193002e-01 7.59765092e-01
5.85842088e-01 3.21187287e-02 -8.09788518e-01
6.76750106e-01 3.99586283e-01 6.18336549e-01
7.48806342e-01 -4.66100596e-01 -4.71210471e-01
6.38835084e-01 3.10232070e-01 -7.04021167e-01
-8.84061110e-01 3.03125039e-01 3.55740292e-01
4.97100528e-02 1.81137664e-01 9.82200614e-01
4.65941293e-01 6.30201503e-01 -6.21083551e-01
-7.95092587e-01 -6.06134172e-01 2.07159155e-02
3.00088306e-02 -4.91070279e-01 8.70602923e-01
-4.12730301e-01 3.94703839e-01 8.20891324e-01
2.64013518e-01 9.18132769e-01 -2.95514929e-01
9.25165954e-01 1.94890919e-01 -3.25707675e-01
5.32967965e-01 -4.21247011e-01 -7.33822946e-01
-9.74449865e-01 2.21625136e-01 3.64658014e-02
1.33459933e-01 9.81411409e-01 -1.37913318e-01
9.03476369e-02 -9.67167262e-01 -2.37539059e-01
-9.82061848e-02 -9.53306541e-01 -2.85590960e-01
-4.29562302e-02 9.88238136e-01 -1.46765591e-01
1.59021348e-01 7.82384374e-01 -6.02151891e-01
-7.45743080e-01 -5.62637007e-01 3.56800865e-01
7.72677096e-02 9.30167173e-01 3.58913246e-01
-8.30539418e-01 -2.67443345e-01 4.88547161e-01
4.83930959e-01 -6.82160598e-01 -5.48149395e-01
9.77584621e-01 -1.11320849e-01 -1.78706412e-01
-3.20737547e-01 4.91293932e-01 -8.09788676e-01
-1.14385631e-01 9.27151043e-01 3.56800867e-01
8.41875376e-02 -5.93160516e-01 -8.00670391e-01
9.76953186e-01 -2.13398634e-01 4.84767970e-03
1.67124213e-01 -5.88290980e-01 7.91191013e-01
-5.26543809e-01 4.90277429e-01 6.94535563e-01
9.36532226e-01 1.74538653e-01 3.04045468e-01
5.12104897e-01 -1.43467788e-02 8.58803084e-01
-7.08561700e-01 5.87111168e-01 3.91459808e-01
-4.59968916e-01 8.18300164e-01 -3.44693241e-01
-4.78683264e-01 -8.07495018e-01 -3.44694270e-01
-7.90956093e-01 -1.26111831e-01 5.98735551e-01
-6.22217237e-01 -5.95705419e-01 5.07918068e-01
1.18730389e-01 3.86224098e-01 -9.14731679e-01
-6.71521400e-02 3.76862215e-01 -9.23831947e-01
-3.56372974e-01 5.61213140e-01 7.47019479e-01
-2.93074245e-01 5.81757659e-02 -9.54318120e-01
-7.76483996e-01 5.61703418e-01 -2.85590387e-01
-2.02863277e-01 9.60967736e-01 1.88115627e-01
5.39079710e-01 5.15846273e-01 6.65804534e-01
-8.38070180e-01 4.62710959e-01 2.89027563e-01
-4.42086992e-01 -4.65247314e-01 7.66879407e-01
-9.12052623e-02 -2.57577251e-01 -9.61943643e-01
-9.18534237e-01 -3.39641724e-01 2.02332288e-01
-9.59712110e-01 -2.78238604e-01 3.91911553e-02
7.92417878e-01 5.61826110e-01 -2.37540157e-01
-6.03126407e-01 -7.78379578e-01 1.74252045e-01
-7.17534473e-01 -8.63174569e-02 -6.91153806e-01
6.23958386e-01 -1.50233274e-01 7.66880624e-01
8.17070533e-02 9.46793326e-01 -3.11297844e-01
-8.93966790e-01 2.65300211e-01 -3.61163639e-01
9.47480147e-01 2.75292664e-01 -1.62773834e-01
-4.16586333e-01 -5.52805175e-01 -7.21707889e-01
-4.57642406e-01 6.44003968e-01 6.13043477e-01
4.33303785e-01 4.16085221e-02 -9.00286937e-01
-5.95556542e-01 -2.99757255e-02 8.02753918e-01
-6.65474404e-01 -1.75922103e-01 7.25393152e-01
4.71597719e-01 3.69487886e-01 -8.00671155e-01
8.64468710e-01 4.94835861e-01 8.84947217e-02
2.52106306e-03 -1.08529184e-01 -9.94090072e-01
-3.28902455e-01 -7.18332217e-01 6.13043231e-01
-6.71825527e-01 -5.68459173e-01 -4.74873286e-01
3.99062252e-01 -3.46909214e-01 8.48765759e-01
9.87070227e-01 4.09261756e-02 1.54975534e-01
3.06593084e-01 9.43570380e-01 -1.25202280e-01
-4.58999159e-01 5.36409070e-01 -7.08226716e-01
-9.23684659e-01 3.81129418e-01 -3.93320826e-02
-1.05404145e-01 7.55986465e-01 6.46045213e-01
6.76739531e-01 6.41547537e-01 -3.61165284e-01
-8.60800489e-01 -4.02636758e-01 -3.11297550e-01
8.60129039e-01 -3.64513629e-01 3.56802261e-01
3.59949018e-01 -1.30277176e-01 -9.23831463e-01
-2.74120903e-01 2.77758703e-01 9.20710498e-01
-3.90933689e-01 -3.08417522e-01 8.67207863e-01
-5.28374050e-01 7.03826270e-01 -4.74815165e-01
4.89697130e-01 -8.21901246e-01 2.90989811e-01
-6.02001342e-01 -4.69276241e-01 6.46045038e-01
-4.99964817e-01 -1.72143493e-01 8.48764863e-01
-3.72532539e-01 9.11512727e-01 1.74252817e-01
5.69668563e-01 7.68917149e-01 -2.90248415e-01
-9.53681707e-01 2.50125524e-01 -1.67117985e-01
-1.96491731e-01 -7.85902416e-01 -5.86300610e-01
8.28213365e-01 -2.97588434e-01 -4.74872357e-01
9.20644858e-01 -2.03229700e-01 -3.33332778e-01
1.32013191e-01 -1.33619183e-01 9.82200806e-01
-4.54310178e-01 3.29973330e-02 8.90232233e-01
5.59508288e-01 7.22989942e-01 4.05260422e-01
-7.73097488e-01 4.32330358e-01 4.64123611e-01
-7.08743151e-01 4.18293424e-01 -5.68079005e-01
-4.86336062e-01 -7.20593764e-01 4.94188085e-01
1.88485220e-01 4.00302212e-02 9.81259851e-01
3.54004577e-01 -8.10864051e-01 -4.66026032e-01
1.83153726e-02 -9.57145501e-01 2.89027756e-01
-6.73284657e-01 -7.39367493e-01 4.84625664e-03
-3.17111519e-01 -8.98329959e-01 3.04045350e-01
3.90107089e-01 5.24824669e-01 -7.56555040e-01
-9.05881769e-01 1.23053004e-01 4.05260623e-01
5.63110739e-01 4.77859749e-01 -6.74207948e-01
-7.78742024e-01 8.84177614e-02 -6.21082251e-01
-7.67473602e-01 6.41007303e-01 9.69015517e-03
-3.46264450e-01 -1.10362014e-01 9.31622857e-01
3.81650851e-01 8.05278433e-01 4.53728181e-01
-6.31363583e-01 7.03772125e-01 -3.25706642e-01
-2.20304927e-02 9.79848700e-01 1.98522469e-01
9.27278187e-02 5.64466550e-02 -9.94090205e-01
-2.29684947e-01 -2.47841385e-01 9.41179827e-01
-1.46277180e-01 5.22380665e-01 -8.40072276e-01
2.15202814e-01 8.64011570e-01 -4.55161237e-01
-1.56387581e-01 8.66047555e-01 -4.74873195e-01
-7.87935501e-03 -8.22935974e-01 -5.68079495e-01
8.74691055e-01 3.91603177e-01 -2.85591511e-01
9.75659443e-01 -1.33133202e-01 1.74253275e-01
-1.35458856e-01 -5.54786686e-01 8.20891363e-01
-3.75298621e-01 2.12831521e-01 -9.02138401e-01
-2.04786804e-01 8.36708655e-01 5.07918278e-01
-6.84426551e-01 3.86290021e-01 6.18336725e-01
-5.24236980e-01 -6.99931678e-01 -4.85047673e-01
4.25913096e-01 4.38880101e-01 7.91190420e-01
3.58929348e-01 -4.53278130e-01 -8.15909721e-01
4.10274320e-01 2.71524628e-01 8.70602865e-01
-6.70573812e-01 7.29961962e-01 1.32235722e-01
6.40655570e-01 -6.18377427e-01 -4.55159103e-01
-2.96878282e-01 -9.45715198e-01 1.32234860e-01
-8.62672944e-07 2.74569473e-07 9.99999995e-01
-1.81872603e-01 6.15481908e-01 7.66879628e-01
7.89664982e-01 2.68434691e-01 5.51699217e-01
6.93455978e-01 7.00849442e-01 -1.67119303e-01
7.66470334e-01 -1.97228689e-01 -6.11247969e-01
6.30732924e-01 5.68780744e-01 -5.27886772e-01
-2.35043993e-01 -6.65709649e-01 -7.08226657e-01
9.78609764e-01 7.52591432e-02 -1.91465389e-01
9.99289591e-01 -3.52138912e-02 -1.34274770e-02
-9.16656747e-01 -3.75127180e-01 -1.37913051e-01
-8.34360535e-01 -5.31321330e-01 -1.46765618e-01
3.12800846e-01 -7.18618631e-01 -6.21082046e-01
5.66522924e-01 -8.24033304e-01 -4.57162198e-03
9.61550479e-02 -2.82898407e-01 -9.54317929e-01
-2.43627478e-01 4.50670605e-01 8.58802448e-01
-5.07478556e-02 -7.08364084e-01 -7.04020591e-01
2.13084741e-01 5.37479755e-01 -8.15910784e-01
-9.96895188e-01 -7.86070464e-02 -4.57337176e-03
2.75115530e-01 -2.95937061e-01 -9.14730951e-01
-4.24127589e-01 -8.85130841e-01 -1.91465903e-01
1.77213222e-01 -8.30621696e-01 -5.27885486e-01
3.33113838e-03 -4.31434329e-01 -9.02138202e-01
2.77536450e-01 9.00145179e-01 3.35726322e-01
-8.13184020e-01 2.59655487e-01 5.20875002e-01
4.66939384e-01 8.35041059e-01 2.90988025e-01
5.66326824e-01 3.34327986e-01 7.53325107e-01
-5.82364874e-01 5.63119072e-01 -5.86300317e-01
7.16623181e-01 4.04643178e-01 -5.68080203e-01
-5.93037893e-01 1.49411856e-01 7.91190334e-01
-2.85226278e-01 7.12531442e-01 6.41049842e-01
6.14491967e-01 -7.70492262e-01 1.69532606e-01
-6.88683432e-01 5.72623421e-01 -4.44766843e-01
2.84012714e-01 6.64561259e-01 -6.91154911e-01
6.63120322e-01 -6.87709086e-01 -2.95512541e-01
-9.27133147e-01 -2.30424511e-01 -2.95514255e-01
7.56987573e-01 -4.15056171e-01 5.04676323e-01
4.18968729e-01 -9.03720836e-01 -8.80560380e-02
-1.27379868e-01 9.91637636e-01 2.07161275e-02
-6.31294054e-01 -2.50939967e-01 -7.33823520e-01
9.83254994e-02 6.72186064e-01 -7.33824223e-01
-9.56636417e-01 -1.31398281e-02 2.90988155e-01
-5.28977911e-01 8.34364992e-01 1.54975540e-01
1.85986157e-01 -1.21204690e-01 -9.75047990e-01
5.04693940e-01 -6.21931008e-01 5.98736879e-01
-8.06806238e-01 4.22812542e-01 -4.12666023e-01
6.33637679e-01 7.37681035e-01 2.33087909e-01
-2.12430945e-01 7.62396506e-01 -6.11248443e-01
-4.79719458e-01 -2.39639026e-01 -8.44063024e-01
-5.72014754e-01 -8.42028034e-02 -8.15909931e-01
-7.22688242e-01 -6.71994720e-01 -1.61693563e-01
-2.35328655e-01 -9.58188469e-01 -1.62773747e-01
4.33521185e-01 -5.78244150e-01 -6.91153455e-01
-5.72699660e-01 3.23289998e-01 7.53325073e-01
6.63860171e-01 -7.37302328e-01 -1.25199684e-01
6.81813621e-02 -3.06335019e-01 9.49478885e-01
-4.40284627e-01 2.19546351e-01 8.70602570e-01
3.49792350e-01 -7.52607343e-01 5.57877677e-01
5.30351162e-01 -8.21170876e-01 -2.10727429e-01
-5.61854035e-01 -3.27226816e-01 7.59764865e-01
4.85089887e-01 -4.88355457e-01 7.25394202e-01
3.80799940e-01 6.14915680e-01 6.90557818e-01
-8.26674055e-01 7.33748864e-02 5.57876443e-01
7.62940353e-01 6.25534288e-01 1.63183535e-01
7.94698198e-01 1.13703702e-02 -6.06898258e-01
-7.78057895e-01 -4.15434200e-01 -4.71211570e-01
-4.69148422e-01 8.83017242e-01 -1.34275269e-02
-5.54039799e-01 -5.65168379e-01 -6.11248407e-01
5.48188036e-01 1.60083699e-01 8.20891636e-01
-9.92081630e-01 5.03985511e-02 1.15039217e-01
7.60957873e-01 4.53357232e-01 4.64123183e-01
9.33654093e-01 -3.04798503e-01 1.88116747e-01
1.98577529e-01 -4.09942001e-01 8.90232844e-01
2.55731194e-01 3.76945435e-01 8.90232376e-01
-9.18316598e-01 -2.09719691e-01 3.35726488e-01
-1.77465532e-01 2.07773759e-01 -9.61943894e-01
7.69568735e-01 4.87308380e-01 -4.12667547e-01
-5.55785919e-01 2.23671694e-01 -8.00670338e-01
3.72382462e-02 -9.10120626e-01 -4.12666659e-01
2.92518165e-02 8.81534845e-01 -4.71211889e-01
4.76881499e-01 6.79233410e-01 5.57876330e-01
-5.85198233e-01 -7.90953009e-01 -1.78707509e-01
6.30290876e-01 -4.59227140e-01 6.25974318e-01
2.59458480e-01 -6.00256183e-01 -7.56553915e-01
6.40780368e-01 -6.90425262e-01 3.35728288e-01
6.37235111e-03 -6.57617053e-01 7.53325430e-01
1.00901553e-01 5.19053733e-01 8.48765036e-01
3.81068572e-01 -8.77806215e-01 -2.90246457e-01
-7.65558071e-01 -5.59028087e-01 -3.18446927e-01
6.64210730e-01 2.80226938e-02 7.47019966e-01
-9.19484812e-01 -6.53387095e-02 -3.87657756e-01
2.60226226e-01 -9.50975283e-01 -1.67117727e-01
-2.52686942e-01 3.54446776e-01 -9.00287063e-01
-6.23339103e-01 -6.99573584e-01 3.49349632e-01
-7.12849276e-01 -3.16233801e-01 6.25972913e-01
8.40247542e-01 3.10105834e-01 -4.44767852e-01
-2.92797270e-01 -2.46586885e-01 -9.23831520e-01
3.42132257e-01 -6.37239291e-01 6.90558908e-01
7.86544736e-01 7.43292552e-02 6.13043665e-01
1.65129924e-01 9.65294707e-01 2.02331967e-01
6.79158264e-01 7.33085494e-01 3.64651169e-02
-3.98226119e-02 -9.92955580e-01 -1.11594746e-01
4.45979673e-01 8.69882217e-01 -2.10729814e-01
-3.80883853e-01 7.81476299e-01 4.94188497e-01
9.22473584e-01 -3.85503939e-01 2.07172897e-02
-4.74457090e-01 -6.03279348e-01 6.41049528e-01
7.67613549e-03 -7.85875425e-01 6.18337202e-01
7.75553825e-02 3.55054559e-01 9.31622998e-01
-3.93846312e-01 -9.02887956e-02 -9.14731121e-01
-9.76330083e-01 -4.87123633e-02 -2.10728912e-01
5.64313028e-01 -3.22964977e-01 7.59766035e-01
7.91910041e-01 6.09369655e-01 -3.93332631e-02
7.04544876e-01 6.14056701e-01 3.55739901e-01
9.07450063e-01 3.61399300e-01 2.14301016e-01
1.19724332e-02 2.21669760e-01 -9.75048299e-01
2.68670601e-01 4.98013495e-02 -9.61943835e-01
1.83657336e-01 8.52989860e-01 4.88547100e-01
-3.28416970e-01 -8.22173324e-01 4.64944430e-01
-9.23198772e-01 3.47958183e-01 1.63184319e-01
-8.91850316e-01 -4.51173479e-01 3.23343316e-02
1.79515993e-01 -9.17181625e-01 3.55741313e-01
-4.45291852e-01 3.62530074e-01 -8.18710641e-01
8.76231218e-01 1.26669918e-01 4.64944707e-01
7.07405247e-01 -2.86708499e-01 6.46046478e-01
7.20817432e-01 -6.92016004e-01 3.91929516e-02
-8.60774728e-01 5.01233808e-01 8.84959287e-02
-5.88086967e-01 3.98131689e-01 -7.04020510e-01
-3.79257235e-01 -3.87870220e-01 -8.40071814e-01
