5.14135880e-01 2.55307455e-01 8.18829897e-01
-9.28983965e-01 1.83776641e-01 -3.21270820e-01
-9.03806764e-01 -3.47462704e-01 -2.49805929e-01
-1.91188215e-01 7.04515689e-01 6.83450591e-01
-7.26579804e-01 -7.05484134e-02 -6.83450591e-01
3.01260124e-01 7.14851576e-01 6.31054325e-01
-6.49914396e-01 6.05913472e-01 -4.58781148e-01
6.23647222e-01 7.12635393e-01 -3.21270820e-01
8.49693657e-01 2.59885641e-01 -4.58781149e-01
-3.62112911e-01 9.19380252e-01 -1.53669101e-01
5.76831546e-02 -8.86674975e-01 4.58781149e-01
7.52814911e-01 -6.08988266e-01 -2.49805929e-01
3.43585619e-02 3.10267443e-01 9.50028212e-01
5.07159752e-03 9.68282643e-01 2.49805929e-01
-4.78170681e-01 3.17601005e-01 8.18829897e-01
-5.68042336e-02 -5.71218766e-01 -8.18829897e-01
5.05501283e-01 8.49031366e-01 1.53669101e-01
1.50991854e-01 9.56450970e-01 -2.49805929e-01
4.82532090e-01 -8.62292636e-01 1.53669101e-01
-4.45766443e-01 -8.35510227e-01 3.21270820e-01
-2.78021528e-01 -1.41952201e-01 -9.50028212e-01
4.24386620e-01 -5.93962361e-01 -6.83450591e-01
3.02193184e-01 6.64510775e-01 -6.83450591e-01
3.05336743e-01 -8.96412034e-01 -3.21270820e-01
9.46456303e-01 3.17100493e-02 3.21270819e-01
-4.66287846e-01 3.34803292e-01 -8.18829897e-01
-2.85878769e-01 -1.25378334e-01 9.50028212e-01
4.68449563e-01 -6.18324709e-01 6.31054325e-01
9.77263109e-01 -1.46091146e-01 -1.53669101e-01
-8.08179106e-02 -9.96728883e-01 5.74125288e-11
-3.59651980e-02 -5.72908460e-01 8.18829897e-01
-5.14534377e-01 -5.17831696e-01 6.83450591e-01
-1.99779262e-01 -8.65799113e-01 -4.58781148e-01
2.61944976e-01 -1.69797605e-01 -9.50028212e-01
-6.15150198e-01 -7.73289106e-01 -1.53669101e-01
7.39041476e-01 4.93292565e-01 4.58781149e-01
-5.00689860e-01 8.03800177e-01 3.21270820e-01
5.23092079e-01 2.36415474e-01 -8.18829897e-01
9.03601488e-01 4.28374078e-01 -1.35791543e-10
1.60765515e-02 3.11749806e-01 -9.50028212e-01
-8.41093166e-01 -4.79749189e-01 2.49805929e-01
7.05722592e-01 -1.86683993e-01 6.83450591e-01
8.36021568e-01 -4.88533454e-01 2.49805929e-01
2.51520207e-01 -1.84889109e-01 9.50028212e-01
-1.82157084e-01 7.54048563e-01 -6.31054325e-01
-8.22783578e-01 5.68354805e-01 8.10793862e-11
-5.61946669e-01 -5.34776944e-01 -6.31054325e-01
-7.96724631e-01 3.93382410e-01 4.58781149e-01
-9.88033373e-01 1.32612699e-02 1.53669101e-01
7.44103753e-01 -2.19271619e-01 -6.31054325e-01
-7.69709687e-01 -9.65268673e-02 6.31054325e-01
