-1.36368776e-01 6.63810728e-01 7.35355969e-01
8.29413454e-01 -4.91126229e-01 -2.66218220e-01
4.06721040e-01 -8.74409416e-01 -2.64556114e-01
-7.75142299e-01 1.81585052e-01 6.05122025e-01
1.76215246e-10 8.64299897e-11 -1.00000712e+00
9.37603114e-01 -3.00047073e-01 1.75697617e-01
-6.12134729e-01 -2.25353737e-01 7.57955125e-01
1.52456090e-01 -4.38073522e-01 -8.85924008e-01
8.02817787e-01 -1.32421205e-01 -5.81340266e-01
5.11730390e-01 8.59143696e-01 -2.03616571e-03
6.74033338e-01 -7.29055118e-01 1.18978985e-01
-4.70486201e-01 2.71210579e-02 -8.81997588e-01
1.36368776e-01 -6.63810728e-01 7.35355969e-01
-4.06721040e-01 8.74409416e-01 -2.64556114e-01
7.43634837e-01 3.56933366e-01 -5.65344013e-01
6.87668001e-01 6.13903238e-01 3.87595167e-01
-9.28437334e-01 -2.07396323e-01 3.08198786e-01
-9.83683498e-01 -5.30691034e-02 -1.71909552e-01
9.83683498e-01 5.30691033e-02 -1.71909552e-01
9.28437334e-01 2.07396323e-01 3.08198786e-01
2.03581775e-01 9.05238766e-01 3.72950298e-01
5.66258895e-01 -6.01649180e-01 5.63348120e-01
-3.29951018e-01 -6.03632357e-01 7.25775424e-01
6.12134728e-01 2.25353737e-01 7.57955125e-01
-2.57923962e-01 9.27631368e-01 2.70132241e-01
-5.11730390e-01 -8.59143696e-01 -2.03616581e-03
-2.03581775e-01 -9.05238766e-01 3.72950298e-01
-3.63261639e-01 2.29265841e-01 9.03031170e-01
4.57262669e-01 7.58583311e-01 -4.64186195e-01
2.57923962e-01 -9.27631368e-01 2.70132241e-01
5.64705815e-02 9.89326857e-01 -1.34333005e-01
-9.37603114e-01 3.00047073e-01 1.75697617e-01
3.29951018e-01 6.03632357e-01 7.25775424e-01
-8.02817787e-01 1.32421205e-01 -5.81340266e-01
1.26166203e-01 2.20215442e-01 9.67250470e-01
7.75142299e-01 -1.81585052e-01 6.05122026e-01
-5.64705814e-02 -9.89326857e-01 -1.34333005e-01
1.91152685e-02 -8.06229356e-01 -5.91301323e-01
-5.21892513e-01 5.66734895e-01 -6.37533406e-01
-7.43634837e-01 -3.56933366e-01 -5.65344013e-01
-8.45236065e-01 -5.22509095e-01 -1.12079595e-01
-1.26166203e-01 -2.20215442e-01 9.67250470e-01
3.28909957e-01 4.45600801e-01 -8.32628384e-01
-4.57262669e-01 -7.58583311e-01 -4.64186195e-01
-1.52456090e-01 4.38073522e-01 -8.85924008e-01
-3.28909957e-01 -4.45600801e-01 -8.32628384e-01
-6.87668001e-01 -6.13903238e-01 3.87595167e-01
-8.29413454e-01 4.91126229e-01 -2.66218220e-01
8.45236066e-01 5.22509095e-01 -1.12079595e-01
-1.91152685e-02 8.06229356e-01 -5.91301323e-01
4.70486201e-01 -2.71210579e-02 -8.81997588e-01
-6.74033339e-01 7.29055118e-01 1.18978985e-01
-5.66258895e-01 6.01649180e-01 5.63348120e-01
3.63261639e-01 -2.29265841e-01 9.03031170e-01
5.21892513e-01 -5.66734895e-01 -6.37533406e-01
