-9.10005344e-01 -1.52091080e-01 3.85692334e-01
2.51606205e-01 -2.61699300e-02 9.67475815e-01
8.79286701e-01 -2.20239053e-02 -4.75783401e-01
7.48402595e-01 6.03913060e-01 2.74194405e-01
-9.15674233e-01 -3.83253299e-01 -1.21068605e-01
6.08519148e-01 2.81930512e-01 7.41767911e-01
-5.59499743e-01 4.52703865e-01 -6.94276061e-01
-5.97445238e-01 -7.83831387e-01 -1.69314926e-01
-5.68747497e-01 -1.45057058e-02 -8.22384258e-01
-6.08519148e-01 -2.81930512e-01 7.41767911e-01
-6.46296147e-01 7.62862862e-01 1.84809131e-02
-7.02335412e-01 -4.39075869e-01 -5.60301124e-01
4.15440064e-01 7.00499474e-01 5.80267214e-01
5.59499743e-01 -4.52703865e-01 -6.94276061e-01
8.28008500e-01 -4.76909710e-01 -2.94888205e-01
-8.79286702e-01 2.20239053e-02 -4.75783400e-01
2.96548403e-01 9.39889089e-01 1.69314926e-01
-3.33277527e-01 -7.43112408e-01 -5.80267214e-01
-9.95874821e-01 8.88357876e-02 -1.84809131e-02
-6.92348263e-01 1.96556947e-01 6.94276061e-01
2.14205993e-01 -9.69256512e-01 1.21068605e-01
-7.48402595e-01 -6.03913060e-01 2.74194405e-01
-4.56807217e-02 8.27028368e-01 5.60301124e-01
9.15674233e-01 3.83253299e-01 -1.21068605e-01
-6.25213987e-02 -9.59639778e-01 -2.74194405e-01
7.02335412e-01 4.39075869e-01 -5.60301124e-01
-2.68627866e-01 -3.66291352e-01 -8.90881426e-01
9.10005344e-01 1.52091080e-01 3.85692334e-01
-2.96548403e-01 -9.39889090e-01 1.69314926e-01
-2.14205993e-01 9.69256512e-01 1.21068605e-01
-1.20089259e-01 6.59817351e-01 -7.41767911e-01
8.66810772e-01 -4.02094556e-01 2.94888205e-01
-5.24522056e-01 7.06050118e-01 4.75783400e-01
5.68747497e-01 1.45057059e-02 -8.22384259e-01
-3.15774040e-01 4.73255625e-01 8.22384259e-01
6.92348263e-01 -1.96556947e-01 6.94276061e-01
3.15774040e-01 -4.73255625e-01 8.22384259e-01
-3.99894542e-01 8.31460029e-01 -3.85692334e-01
-1.44664927e-01 -4.30583725e-01 8.90881426e-01
-2.51606205e-01 2.61699299e-02 9.67475815e-01
3.33277526e-01 7.43112408e-01 -5.80267214e-01
2.68627866e-01 3.66291352e-01 -8.90881426e-01
6.25213987e-02 9.59639778e-01 -2.74194405e-01
1.66331132e-01 -1.90589879e-01 -9.67475815e-01
4.56807219e-02 -8.27028368e-01 5.60301124e-01
6.46296147e-01 -7.62862862e-01 1.84809131e-02
-4.15440064e-01 -7.00499474e-01 5.80267214e-01
5.24522056e-01 -7.06050118e-01 4.75783400e-01
-8.28008500e-01 4.76909710e-01 -2.94888205e-01
-8.66810772e-01 4.02094556e-01 2.94888205e-01
1.44664927e-01 4.30583725e-01 8.90881426e-01
9.95874821e-01 -8.88357876e-02 -1.84809132e-02
3.99894542e-01 -8.31460029e-01 -3.85692334e-01
-1.66331132e-01 1.90589879e-01 -9.67475815e-01
1.20089259e-01 -6.59817351e-01 -7.41767911e-01
5.97445238e-01 7.83831387e-01 -1.69314926e-01
