-4.21760702e-01 -2.53375953e-01 8.70585169e-01
4.21760702e-01 2.53375953e-01 8.70585169e-01
-3.48791094e-02 8.43289320e-01 5.36326924e-01
-4.48087728e-02 -4.43959197e-01 -8.94925922e-01
-1.87655992e-01 7.46844117e-01 -6.37972644e-01
8.36817346e-01 -4.48137043e-01 3.14499475e-01
4.59483802e-01 1.75943453e-01 -8.70585169e-01
-1.62903636e-01 -9.35175110e-01 -3.14499475e-01
-4.26248903e-01 -6.86246616e-01 5.89387356e-01
7.60698489e-01 3.39924984e-01 5.52981749e-01
8.03116234e-01 -8.73318891e-02 -5.89387356e-01
-8.03116234e-01 8.73318892e-02 -5.89387356e-01
7.49876839e-01 -1.31420452e-01 6.48392929e-01
7.36549192e-01 3.89495152e-01 -5.52981749e-01
-7.97352286e-11 6.11450006e-11 -1.00000000e+00
3.48791095e-02 -8.43289320e-01 5.36326924e-01
-9.58734820e-01 2.27312543e-01 -1.70752898e-01
9.47283517e-01 2.71379158e-01 -1.70315267e-01
-4.59483802e-01 -1.75943453e-01 -8.70585169e-01
-9.70929946e-01 -3.55447539e-02 2.36709970e-01
9.58734820e-01 -2.27312543e-01 -1.70752898e-01
-6.26444457e-01 -7.42654518e-01 -2.36709970e-01
-6.42553595e-01 5.47246113e-01 -5.36326924e-01
3.58715856e-01 6.71497985e-01 -6.48392929e-01
4.72439890e-01 -6.08104807e-01 6.37972644e-01
-4.11949679e-02 9.94042235e-01 1.00910895e-01
7.57371761e-01 -6.45139525e-01 -1.00910895e-01
-7.60698489e-01 -3.39924984e-01 5.52981748e-01
1.03908575e-12 3.70699640e-11 1.00000000e+00
3.65563225e-01 -8.97993722e-01 -2.44889371e-01
-7.57371761e-01 6.45139525e-01 -1.00910895e-01
4.26248903e-01 6.86246616e-01 5.89387356e-01
4.81806218e-01 -8.41363159e-01 2.44889371e-01
-4.11939508e-01 -8.95069433e-01 1.70752898e-01
1.62903636e-01 9.35175110e-01 -3.14499475e-01
3.77216644e-01 -2.38359388e-01 8.94925922e-01
-3.58715856e-01 -6.71497985e-01 -6.48392929e-01
4.11939508e-01 8.95069433e-01 1.70752898e-01
6.42553595e-01 -5.47246113e-01 -5.36326924e-01
-4.72439889e-01 6.08104807e-01 6.37972644e-01
9.70929946e-01 3.55447538e-02 2.36709970e-01
-9.47283517e-01 -2.71379158e-01 -1.70315267e-01
-7.49876839e-01 1.31420452e-01 6.48392929e-01
2.10639619e-02 5.11274292e-01 8.59159419e-01
1.87655992e-01 -7.46844117e-01 -6.37972644e-01
-4.81806218e-01 8.41363159e-01 2.44889371e-01
-2.10639619e-02 -5.11274292e-01 8.59159419e-01
6.26444457e-01 7.42654518e-01 -2.36709970e-01
-7.36549192e-01 -3.89495152e-01 -5.52981748e-01
4.11949680e-02 -9.94042235e-01 1.00910895e-01
-3.65563225e-01 8.97993722e-01 -2.44889370e-01
4.48087727e-02 4.43959197e-01 -8.94925922e-01
-3.77216644e-01 2.38359388e-01 8.94925922e-01
-7.97578352e-01 -5.78672172e-01 1.70315267e-01
7.97578352e-01 5.78672172e-01 1.70315267e-01
-8.36817346e-01 4.48137043e-01 3.14499475e-01
4.15588581e-01 -2.98548528e-01 -8.59159419e-01
-4.15588581e-01 2.98548528e-01 -8.59159419e-01
