3.05145468e-01 -3.24789558e-01 8.95208348e-01
5.20217094e-01 -6.21016407e-01 5.86270243e-01
9.49225716e-12 -9.11832179e-12 -1.00000000e-00
-4.57319402e-01 8.09797116e-01 3.67542645e-01
-3.43476358e-02 7.02584750e-01 -7.10770644e-01
-7.85888755e-01 1.96636891e-01 5.86270243e-01
9.57612989e-01 1.14831122e-01 -2.64180197e-01
7.31052837e-01 -5.74868815e-01 -3.67542645e-01
2.58766862e-01 9.29111691e-01 2.64180197e-01
3.46638458e-01 6.12084039e-01 7.10770644e-01
7.93375686e-02 -6.98935363e-01 7.10770644e-01
-5.34915572e-01 6.08401622e-01 -5.86270243e-01
2.29228805e-12 -3.31223478e-12 1.00000000e-00
4.03188361e-01 1.89845092e-01 8.95208348e-01
-1.47805497e-01 9.85358881e-01 8.49788891e-02
1.86707801e-01 9.46228842e-01 -2.64180197e-01
6.98756577e-01 -7.10294189e-01 8.49788891e-02
6.28843357e-01 6.85177668e-01 3.67542645e-01
-7.07229142e-01 -6.55771122e-01 -2.64180197e-01
-2.14598090e-01 -3.90576078e-01 8.95208348e-01
-2.53534757e-01 8.94780717e-01 -3.67542645e-01
8.45965970e-01 -3.86334029e-01 3.67542645e-01
-9.43538376e-01 -3.20177952e-01 -8.49788891e-02
-4.75009340e-01 5.18817134e-01 7.10770644e-01
1.60271411e-02 -4.45359567e-01 -8.95208348e-01
-8.42221222e-01 4.69970463e-01 -2.64180197e-01
-9.29333580e-01 3.53765645e-02 -3.67542645e-01
4.40756776e-01 -5.48213969e-01 -7.10770644e-01
-9.11482291e-01 -1.84695526e-01 3.67542645e-01
7.51377623e-01 3.02851234e-01 5.86270243e-01
-7.43922329e-01 -3.20728500e-01 -5.86270243e-01
-5.59613566e-02 4.42120278e-01 8.95208348e-01
-2.74742015e-01 3.50882941e-01 -8.95208348e-01
-8.03674370e-01 5.33213213e-01 2.64180197e-01
-4.37774381e-01 8.34002665e-02 8.95208348e-01
-4.18609460e-01 -1.52866392e-01 -8.95208348e-01
9.63601086e-01 4.10093919e-02 2.64180197e-01
-7.55464939e-01 -5.99567803e-01 2.64180197e-01
4.28514778e-01 -1.22380958e-01 -8.95208348e-01
5.75142702e-01 8.13627347e-01 -8.49788892e-02
7.72640482e-01 5.17628331e-01 -3.67542645e-01
2.48809556e-01 3.69723976e-01 -8.95208348e-01
8.91457574e-01 4.45064020e-01 8.49788891e-02
4.05129574e-01 -8.75259305e-01 -2.64180197e-01
-9.82806395e-01 1.63921259e-01 8.49788892e-02
7.51462872e-02 -8.06622736e-01 -5.86270243e-01
6.89243689e-01 -1.40528394e-01 7.10770644e-01
-5.96076721e-01 7.98417892e-01 -8.49788891e-02
-6.40210375e-01 -2.91437417e-01 7.10770644e-01
-1.06007634e-01 -9.23945229e-01 3.67542645e-01
-3.85181134e-01 -5.88592037e-01 -7.10770644e-01
-4.29865777e-01 -6.86660481e-01 5.86270243e-01
-3.20824982e-01 -8.72916797e-01 -3.67542645e-01
9.51534460e-01 -2.95568538e-01 -8.49788891e-02
-4.59602260e-01 -8.84049971e-01 8.49788892e-02
1.29379350e-02 -9.96298750e-01 -8.49788892e-02
-6.78811808e-01 1.84444085e-01 -7.10770644e-01
3.36771361e-01 -9.03766493e-01 2.64180197e-01
6.57583802e-01 2.49777171e-01 -7.10770644e-01
-5.58401848e-02 8.08188763e-01 5.86270243e-01
4.13326325e-01 6.96741381e-01 -5.86270243e-01
7.90365289e-01 -1.77791767e-01 -5.86270243e-01
