-0.2812100643 0.2728646276 -0.9200357573
0.1150970334 0.6003584146 -0.7914053620
-0.3933423666 -0.8113881990 0.4323551472
-0.5795793042 -0.2782873947 0.7659268608
0.4542744446 -0.0389353313 -0.8900105443
0.9572515763 0.2763237178 0.0855255670
-0.5018812242 0.6908774325 -0.5203879419
-0.3647713369 0.7196623462 -0.5907858996
-0.2090365521 -0.6325294057 -0.7457950596
-0.3208739503 -0.8688971066 -0.3769054604
0.8748852198 0.0587027260 0.4807596512
-0.4959032271 -0.8516552526 -0.1695975239
-0.3498802485 -0.9212779268 0.1697963288
-0.4696015219 -0.5350930000 0.7022463185
-0.8709422077 -0.1489997945 0.4682507150
-0.5607681644 0.3987100318 0.7256510017
-0.5856225750 -0.8033406601 0.1081202275
0.1499314256 -0.9560500146 -0.2519701117
-0.2397006534 -0.1369518775 -0.9611387933
0.4264783303 0.7619653015 -0.4873654821
0.7619238652 -0.6398838427 -0.1001034038
-0.8711509143 -0.4537682950 0.1875910953
-0.0282718103 0.0603754244 0.9977752818
-0.7560930767 0.2112146210 0.6194446249
-0.7634948577 0.3830748208 -0.5199319994
-0.3545954240 0.9290602363 -0.1054000126
-0.5891382016 0.8027348915 -0.0923735532
-0.7258316130 -0.5921538466 -0.3500318435
0.9438824422 0.1478665926 -0.2953327040
-0.0088538450 0.8789927197 -0.4767529844
-0.1429869575 -0.0498784639 0.9884669286
-0.0105009821 -0.4779382283 0.8783306776
0.1421858391 -0.1188657070 0.9826770227
0.5395916821 -0.6802081076 -0.4961428695
-0.8873878348 0.3392951014 -0.3121244380
0.8782033467 0.4698399421 -0.0894947519
0.8083314565 -0.0138852257 0.5885638936
-0.0232079718 0.7709275971 0.6364998273
-0.8943874255 -0.1110363463 -0.4332921218
-0.2448339312 0.9245589324 0.2919711060
0.6346079598 -0.3756333328 0.6754053128
-0.8087415659 -0.4745903802 -0.3474205672
-0.4871060710 -0.8481948523 0.2080701040
-0.4591523031 0.3390246844 0.8211220530
0.6140069845 0.7477346722 -0.2527613162
-0.6941718880 -0.2408002276 0.6783366718
-0.0304317498 0.6223366700 -0.7821578982
0.8768619782 -0.4736462900 0.0822937611
0.8040181145 0.1913224050 -0.5629836667
-0.9902415462 -0.1300301165 -0.0501382980
-0.9873715117 -0.0221368788 -0.1568676402
0.6967718475 -0.2388462741 0.6763589652
-0.2982576118 -0.3802688639 0.8754644414
0.5818092155 0.5650626872 -0.5849805094
-0.2361589478 0.9571582010 -0.1675623154
-0.1996222015 0.9292099361 -0.3109981855
0.8374262801 0.5458188429 0.0282668739
-0.3437635473 0.9032929307 -0.2566875628
-0.7798558770 0.0922986223 -0.6191169320
0.2934387863 -0.9219254364 0.2528777737
0.4545073134 -0.4166980066 -0.7872648051
0.0615589673 0.9511459125 0.3025424709
-0.5460598101 0.7429023587 -0.3871882866
-0.3042588412 0.5390802139 0.7853783041
0.3167611304 0.2183411168 -0.9230327962
0.9398259282 0.3357345123 -0.0633211016
-0.6289937907 -0.7661860643 -0.1316272240
-0.4488883114 -0.8339569394 -0.3209596658
-0.6210846276 -0.1384044553 0.7714260121
-0.5299458432 -0.4106721195 0.7419607897
-0.6059107171 0.1368898315 -0.7836666236
-0.6918562121 0.1982034021 -0.6942984900
0.0660034301 -0.9964230244 0.0527702910
-0.0352256496 -0.9975640371 -0.0602091811
0.9494266919 -0.1852673389 -0.2535053645
0.3220881623 0.7298455811 -0.6029798036
0.9307614734 -0.0927831037 -0.3536585576
0.6972422691 -0.0639354207 -0.7139786272
-0.3017390241 -0.5167559407 -0.8011971412
-0.2458212505 -0.3993118995 -0.8832451074
0.2857916482 0.8210722356 -0.4941290496
0.9012086168 0.2862228275 -0.3254220676
0.5608779652 0.6728569408 -0.4823685784
-0.6807745360 0.7324684073 0.0060052902
0.0758879856 0.9962950079 0.0404632034
-0.1178733531 0.8139862077 -0.5687990211
-0.0567742211 0.2024116296 0.9776534253
0.4208597312 -0.8887736318 0.1815448101
0.4763711907 0.1868574688 0.8591593421
-0.9701816101 -0.2308535708 0.0738530448
0.6376636171 -0.7576581808 0.1390654249
-0.7215550336 0.6416732627 0.2600264553
0.8817508498 0.1811757389 -0.4355350623
0.3636546111 -0.7229868985 0.5874055399
0.9341701726 -0.3383080895 0.1134624398
0.9512904389 0.2075214254 0.2279942078
-0.3474013175 -0.5948578638 0.7248837469
0.1232540895 -0.2576734754 -0.9583385673
0.9800936916 0.1957012700 -0.0334270624
0.3301761707 0.5991516710 0.7293839670
-0.6041500795 0.5880338747 0.5377907061
-0.3328673801 0.8572984292 0.3927323652
-0.4533525167 0.6151768854 -0.6450030196
0.4252637304 0.8945342625 0.1376924572
0.9823645530 0.1090037283 -0.1519146875
0.1832850950 -0.9704405877 0.1570084067
0.3417361161 0.9053931157 -0.2519518466
0.8304668540 0.3137088580 -0.4603385242
0.6515225354 0.0737734861 -0.7550336804
-0.2718831695 -0.9544757261 -0.1227013875
0.2787615334 -0.8763439778 0.3928272395
-0.8386439623 0.5433083841 0.0386303541
0.1085211966 0.5497941510 0.8282207081
0.0040017475 0.4507751974 0.8926285383
0.4133448544 -0.2962546926 -0.8610337906
0.5473681893 -0.3069542715 -0.7785673642
-0.9410274925 0.1874297594 0.2816688545
0.6990944309 0.6660171601 0.2601694046
0.5173235313 0.3383907523 -0.7860458401
0.5991316952 0.4802232358 0.6406456553
0.1598211932 0.2306821923 -0.9598139988
0.1776571789 0.7792540259 -0.6010000748
-0.2027426301 -0.2916535523 0.9347906885
-0.5737507090 0.7821680801 -0.2429469457
-0.4837240020 0.1374198809 -0.8643650075
-0.9927079148 -0.0841144773 0.0863466890
0.9903862497 -0.0404950564 -0.1322695234
-0.5301686231 0.4965954142 -0.6872512100
-0.6311816807 -0.6403686023 -0.4376502474
0.4575715272 -0.2980416124 0.8377347401
0.7210643056 0.4122589969 0.5568741211
0.4364562965 0.3290454930 0.8373977339
-0.1466712715 -0.8181032797 -0.5560526611
0.6277230818 -0.6827890249 -0.3738487397
0.0564086709 0.9712607683 -0.2312370685
0.7866099492 -0.4072515049 0.4641023589
-0.3974260080 0.6084937453 0.6868682043
0.8267012487 0.5139527959 -0.2289488350
-0.3389164655 0.4021137871 -0.8505528388
0.5086434687 -0.4124668190 0.7557466143
-0.0729663783 0.9959957883 0.0516555634
-0.3840507583 -0.3902487927 -0.8367860508
0.4198066672 -0.5292866044 0.7373045860
-0.8675004954 -0.4495393541 -0.2129724385
-0.2482311365 -0.7286973001 -0.6382644810
-0.8923511655 0.0055354091 0.4513078293
-0.9085183258 -0.2424262096 0.3403292296
0.7927699635 -0.1716752193 0.5848447692
-0.6059453308 -0.5602725812 -0.5647343542
-0.3791537055 -0.1345092229 -0.9155051811
-0.8002035658 -0.5163778365 0.3050052182
0.4083685398 -0.1828570479 0.8943145061
0.3617079504 0.9322208872 0.0114706658
0.8707115291 -0.0859212920 -0.4842302806
-0.5868333115 -0.2334857688 -0.7753135239
0.7616879440 0.4417868455 -0.4739787539
-0.6720588069 -0.7404864930 0.0040882452
0.5187965151 -0.1158139721 0.8470167057
-0.1063460544 -0.5669701436 0.8168447667
-0.7876612956 -0.5750586223 -0.2211272583
0.3896040212 0.3318773885 -0.8591077381
-0.5601367863 0.1009098358 0.8222311023
-0.8746835063 -0.3477864050 -0.3375994375
-0.7013545768 0.3223401869 -0.6357661218
0.8549459177 0.2084395641 0.4749951852
0.0874304724 0.1720212412 0.9812056895
0.3934507407 -0.0419551933 0.9183878682
0.1241585512 0.7533447533 0.6457989910
-0.1047396240 -0.3980993237 -0.9113432612
0.1501067207 -0.0152668605 -0.9885519184
0.4813141952 0.8364924719 0.2619484491
0.1861789523 -0.3771668203 -0.9072389914
0.1329781560 -0.4943098160 -0.8590544895
0.4574734702 0.6662001194 -0.5889782891
0.6026078673 0.7614613261 0.2388313360
-0.3883011075 -0.4602830439 0.7983494031
0.6524053453 0.6633496703 -0.3665166850
-0.1746747725 0.6330185754 -0.7541725313
0.0402895774 -0.2327914371 0.9716917705
-0.2581549763 0.6640295162 0.7017270195
0.4997428031 -0.6972434434 0.5139150819
0.2303474470 0.1380879563 0.9632610082
0.0793081996 -0.6144384982 -0.7849684971
0.5979458685 -0.5884444202 0.5442369912
0.4602102762 -0.8877835311 -0.0068486260
-0.2368444405 -0.9316034872 0.2757166183
0.9083801591 0.4144175621 0.0557097005
0.0855365143 -0.3778460011 0.9219088372
0.2777540302 -0.1518261630 0.9485786815
-0.8145408718 -0.1595387201 -0.5577370034
-0.3987185561 0.5192471813 -0.7559139354
0.0985719491 0.9259130231 -0.3646486589
0.9675880812 0.0556975508 0.2463150178
0.1482693994 0.9835133798 -0.1035259237
0.5345733034 -0.8074187115 0.2496125148
0.2811845227 -0.2691973402 -0.9211232579
0.3898702891 0.0915445552 -0.9163082190
-0.1225845101 0.5176882587 -0.8467419351
-0.8204373950 -0.0457772625 0.5699008011
0.6573357080 -0.3280063733 -0.6784700333
-0.5470713530 -0.7383913754 -0.3943236127
0.2949230622 -0.7413594791 -0.6028320746
0.2217212606 -0.7308409780 0.6455316781
-0.5695636456 0.2515737841 0.7825010446
-0.9463417667 0.0562979949 0.3182260147
0.5042403165 -0.1775276938 -0.8451187024
0.1313095987 -0.5144578981 0.8474024194
0.2098248368 0.9325472995 0.2938180933
-0.5733495651 -0.7753904334 -0.2646506224
-0.0706023802 -0.9929267714 0.0954553846
-0.0159355551 -0.5149236458 -0.8570879168
-0.4536809784 -0.8884349290 0.0696917983
-0.6452500824 -0.0992423006 -0.7574980508
-0.1061990784 -0.7326025256 -0.6723208277
-0.6650716002 0.6835681712 -0.3006897435
0.6565614669 -0.7431220667 -0.1292154565
-0.2862773704 -0.8082064603 -0.5146334470
0.3385144411 0.7809738441 0.5248693437
0.2003017080 0.9490005350 -0.2434691159
0.7646593323 0.4847129927 0.4246756647
0.2946958186 0.3798883988 0.8768347501
-0.7934427757 -0.3877167374 -0.4691740542
-0.4494173636 0.8315546513 -0.3264060282
0.9654373359 -0.2606243484 -0.0023873403
-0.5695414143 -0.4688557450 -0.6751272975
-0.5499778250 0.2626074820 -0.7928188333
-0.1605324806 -0.5218883262 -0.8377719843
-0.8536304240 -0.2546446943 -0.4543909978
-0.8458755676 0.5206501713 -0.1158357600
0.5678315983 -0.4425364700 -0.6940668186
-0.8885427058 0.4402266157 0.1291990203
-0.2309614522 0.9726618075 0.0242036324
-0.6434231657 0.4550584400 0.6155716417
0.3153760825 -0.2988462610 0.9006824295
0.2008177932 -0.9795954283 0.0080629314
-0.7100151918 -0.2003044899 -0.6750974291
-0.5130648263 -0.6767989227 -0.5279277434
-0.1026224783 -0.1935827912 0.9757019678
0.9140850195 0.3506672075 0.2036690617
0.6870953375 0.7154024586 -0.1268830936
0.1436169691 0.9751560019 0.1686562724
0.8267183126 -0.4561070437 -0.3293982337
0.8294826482 -0.3485284721 -0.4364475232
0.5974737530 -0.8017994453 -0.0119483898
-0.5404006951 0.8114806404 0.2224101144
-0.1860629192 -0.8863512811 -0.4239834862
-0.1500724720 0.4722765763 0.8685810778
-0.4928392391 -0.1883419854 0.8494920723
-0.5829318120 0.5810790196 -0.5679240050
0.7155189886 0.0657892874 0.6954885669
-0.0447453329 -0.8862215964 -0.4610955836
-0.9856807487 0.1683605789 0.0093902639
0.7651871203 0.2770744872 0.5811354399
0.8403542146 -0.2574202853 0.4770111013
0.2567780643 -0.0059911173 0.9664518261
0.3070374636 -0.0259715504 -0.9513429847
0.2489552930 0.5144532065 0.8205846455
0.5297373719 -0.8368691929 -0.1379429982
-0.9225904830 -0.2103558073 -0.3233840364
0.2356320927 0.3419047804 -0.9097134923
0.8183131833 0.3504220256 0.4555962446
0.8894923131 -0.2231451143 -0.3987601822
0.5231006072 0.4120014029 0.7460701031
-0.5135664839 -0.1264445446 -0.8486820628
-0.4813575544 -0.5936319726 -0.6448999813
-0.7914638717 -0.1976019869 0.5783929414
0.4263089788 0.4657347861 -0.7754687380
0.9945056819 -0.1042591148 0.0094066859
-0.3203407606 0.1352912159 0.9375916403
-0.8087902390 0.4362187738 -0.3944255705
-0.2714207570 -0.8006900145 0.5340657950
-0.3541229611 0.1387280160 -0.9248521320
-0.1743749675 -0.2702248857 -0.9468747973
-0.9528552619 -0.0665558186 -0.2960357628
-0.7970524403 -0.5813390938 0.1635611979
-0.0581365977 -0.3392675455 0.9388917236
-0.4705233376 0.8640920108 -0.1787534216
-0.7894009688 0.2304568611 -0.5689778077
-0.5088522715 -0.7901720098 0.3416102467
0.3497856393 0.8939123346 0.2803047353
-0.8823982998 0.2996524204 0.3627418744
0.6911566297 0.2092827025 0.6917393033
0.9168366567 -0.3976280039 -0.0360903798
-0.3481958267 -0.6200722990 -0.7030433915
0.8392575943 0.4188312958 -0.3467377051
-0.3343604147 0.4197490030 0.8438091535
-0.0627661835 -0.6901097279 0.7209777872
-0.6321937068 0.6380953032 -0.4395059738
-0.1742921147 0.0912045827 0.9804611073
0.5014903517 -0.7723722623 -0.3898057409
0.7025554720 -0.6682362022 -0.2446961112
0.2143839641 0.6801642487 -0.7010107779
-0.0944051619 0.9502063661 0.2969773178
-0.5883045322 -0.5117516189 0.6261054688
-0.4177717805 0.2724034673 -0.8667543426
0.1622432875 0.4756824925 -0.8645248880
0.4649830986 -0.6201899492 0.6317872624
0.0022674021 -0.8758570770 0.4825652698
0.0787954496 0.1142929969 -0.9903173168
-0.8368843530 0.4818840664 -0.2596388383
-0.7700472962 0.5323560147 0.3516023822
-0.7447572308 0.5681701991 -0.3500275591
0.6752835745 0.5631866695 -0.4762487473
-0.2577927337 -0.8753870593 0.4089503673
0.7510882391 -0.3425075022 -0.5644068285
-0.1590857947 0.8815252499 -0.4445277761
0.6668203217 -0.4604886307 -0.5859188336
-0.6486445434 -0.3798159261 0.6595453878
0.1906250993 0.6419597992 0.7426639130
-0.1017456027 0.8423185079 0.5292894894
0.4268942511 0.8950337529 -0.1291351212
-0.9263807950 -0.3714277024 0.0621295789
0.2366465043 0.1026086692 -0.9661624569
-0.3627206862 0.9313398986 0.0322443341
-0.0086101366 -0.0062498874 -0.9999434006
0.8991746906 0.3843925162 -0.2091106629
-0.1342162422 -0.9761505253 -0.1706345579
-0.1359683384 -0.8472483798 0.5135005295
0.0868557299 0.3665293226 -0.9263435312
0.8958068178 0.2801908725 0.3449974205
-0.3066963504 0.8660012333 -0.3949420370
-0.5486731541 0.7032952148 0.4520327541
0.7451215797 0.6669238789 0.0025241310
-0.4572528740 0.1900243121 0.8687983483
0.6263295123 -0.1466104422 0.7656479088
-0.3762542139 -0.8749757540 0.3047133021
0.8194334920 -0.2179042234 -0.5301381911
-0.1380745976 0.9874871274 -0.0761877852
-0.7137767163 0.4995264804 0.4909135306
-0.9675316237 0.2048866589 0.1480000476
-0.0283964820 -0.2644095572 -0.9639923370
0.5031491557 0.0394343968 0.8632994008
-0.6877741964 -0.4281075013 -0.5862513302
0.6809150927 -0.4631536294 0.5673123938
-0.6568842374 0.7356953337 0.1650923218
-0.4390668169 -0.4976328542 -0.7480520521
0.9913627141 -0.0239988119 0.1289341929
-0.7594615318 -0.2969815040 -0.5788092674
0.8005580874 -0.5584578546 -0.2173282616
0.2209062208 0.9749256536 0.0268404822
-0.9057314565 0.4229664792 -0.0273840481
0.5655299145 0.4439544973 -0.6950397975
0.1975940194 0.2802863917 0.9393594318
-0.9833498006 0.1275794045 -0.1294089067
0.9740184259 -0.1857763833 0.1295192702
-0.9195858278 0.3272859076 0.2173610821
0.5267239813 0.7635745011 -0.3735181773
-0.7593487915 -0.0615754073 -0.6477637548
0.2254950629 -0.4109126421 0.8833474838
-0.3063514417 -0.6988831336 0.6463057789
0.4762310557 0.5548282660 -0.6821800179
0.6714594351 0.4477329143 -0.5904891739
-0.2172015694 0.1361711295 -0.9665820719
-0.5315751108 -0.0450907321 0.8458101013
-0.7122684942 -0.5661701172 0.4148794892
-0.1560154785 -0.4347453832 0.8869360869
-0.6781194495 -0.6866255824 -0.2621055547
0.2053419780 -0.9021645646 -0.3793860441
0.1413423054 -0.8855493720 0.4425208046
0.3295964877 -0.6375786171 -0.6963186500
0.8454294359 0.0546186806 -0.5312869928
-0.9067237480 0.3847516353 -0.1726795410
-0.0211110040 0.9073842300 0.4197715863
0.7307305342 0.6379507850 -0.2430055192
0.4697615534 0.7264024143 0.5016608570
-0.2998460654 0.0000985626 -0.9539875929
-0.5181610757 -0.7145754295 0.4699904841
0.7947798101 0.1344879852 0.5918091207
-0.0855564809 0.3416274758 0.9359330940
0.0526877566 0.8434172097 0.5346694406
-0.3842695850 -0.7099635528 -0.5901598425
-0.1819800118 0.7615839332 0.6219913087
-0.4565857328 0.8803340671 0.1286133702
-0.6118189180 -0.7522572823 0.2445129704
-0.0909904357 -0.9425143477 -0.3215391812
-0.8264407535 0.2617038308 0.4985045495
0.7873431936 0.5462221566 0.2858881793
0.0559560228 0.3139285742 0.9477962723
0.0058615529 -0.9767333640 -0.2143771861
0.5833613160 -0.0547919775 -0.8103625202
-0.7517894812 -0.3409216496 0.5644333485
-0.6242045576 -0.6838277626 0.3778204089
-0.9139396219 0.1873525106 -0.3600186167
-0.0268930414 -0.7929855615 0.6086465834
-0.9261495211 -0.3189633169 0.2012696376
0.6287923154 -0.1894713598 -0.7541358153
-0.6836812578 0.7136568875 -0.1525574796
0.4646258270 -0.5497979785 -0.6941505771
0.0204873791 -0.9374930310 0.3474004664
0.7456664827 0.3226942613 -0.5829664744
0.1512177809 0.4202078594 0.8947393686
0.8830321826 -0.4100397398 0.2283015030
0.5261873854 -0.8437902249 0.1055693698
-0.6899095781 0.0384990382 -0.7228710799
-0.2516858474 -0.5202670166 0.8160738114
0.5687937104 0.2765326650 0.7745988641
-0.3641037530 -0.9040129744 -0.2240290142
-0.7019199750 -0.6982736610 0.1404359035
-0.9321701722 -0.0973468696 0.3486866172
0.3709526491 -0.1558678368 -0.9154776620
0.7782825368 0.6109849703 0.1448228541
0.3356724319 -0.9413543850 -0.0342919870
-0.5470447730 -0.8365574856 -0.0302256451
0.7347681723 -0.6565729381 0.1703752032
-0.4706532107 0.3943807631 -0.7892714165
0.4965154208 0.8680125990 -0.0051541186
-0.7665192295 0.6073585506 -0.2087195768
-0.9462644190 0.3176996623 0.0604199787
0.2809176261 0.8662039720 0.4132504886
-0.2506430640 -0.1492905573 0.9564990245
0.7490371950 -0.3267362547 0.5763564005
0.6909107006 0.6119331686 0.3849418149
0.7519816891 -0.4678791186 -0.4643411135
-0.8387629938 -0.2947534526 0.4578176957
0.5549548881 0.8235423007 0.1174868125
-0.1759541013 0.8929004934 0.4144500731
0.3553773372 0.6186014165 -0.7007419180
0.2666616896 0.7193245582 0.6414543812
-0.1669430465 -0.7546977599 0.6344771945
-0.4533320168 -0.2593931141 -0.8527633288
0.5664462514 -0.5697962792 -0.5953745413
0.8009581068 -0.5965852756 0.0505185124
0.4645931839 0.5430197678 0.6994874589
-0.9603314703 0.0828330447 -0.2662745834
0.3869593097 0.4653558899 0.7960567746
0.2449854081 -0.9586780716 -0.1446323091
-0.2298454932 -0.9330871768 -0.2766213471
-0.3158758197 -0.2686738919 -0.9099652776
-0.1734545059 -0.9847144721 -0.0158411762
-0.7063925002 0.5184021113 -0.4819428250
0.0019548145 -0.0843958136 0.9964303916
0.9115576102 -0.1829016226 0.3682522501
-0.8933118768 0.1560946838 0.4214597733
0.2539637457 -0.8299779655 -0.4966276198
-0.6450596603 -0.3342639547 -0.6871431025
-0.9272857099 -0.3148833766 -0.2024590610
-0.4808046233 0.8001758429 0.3585324737
0.9377321675 -0.3110973411 -0.1545212814
0.1584713023 -0.9392760382 0.3043803055
-0.7160712298 -0.5129066575 -0.4734646286
-0.4824980196 -0.6330023581 0.6053954706
0.3220537353 -0.9411086398 0.1029364839
-0.8612290311 0.1338531009 -0.4902732946
0.5922131695 0.2087807917 -0.7782635434
-0.4313348046 0.0459637414 0.9010203221
-0.4776285726 0.6637525015 0.5755897527
0.8787142004 -0.4390661388 -0.1873026420
0.8487761680 -0.5242813282 -0.0686156362
0.9657346265 0.0014320578 -0.2595276101
0.9621062484 -0.1047933951 0.2517338101
-0.5290235827 0.5398506451 0.6547482951
-0.6688823068 0.6220043519 0.4070713031
-0.6952816115 -0.4769944836 0.5376427656
-0.2897087507 -0.0061290914 0.9570952272
0.8170924750 -0.5408019628 0.1997326320
0.5585038502 0.7435714670 0.3676614241
0.5618996941 0.8164064262 -0.1332264277
-0.7757226107 -0.6306402409 0.0233948226
-0.4353333516 0.0015090897 -0.9002680688
-0.0061626322 0.9839291200 0.1784530999
0.8095985828 -0.4791169307 0.3391122254
-0.5970019970 0.3644207184 -0.7146930499
0.5307459768 0.0810934364 -0.8436424377
0.2878389808 0.9451076529 0.1546617133
-0.0765126959 0.7270744528 -0.6822818680
0.5842256261 -0.7688526914 -0.2598960498
-0.2607229870 0.8181899682 0.5124340933
-0.8336450200 -0.5452550923 -0.0879367101
-0.7366059876 -0.6660521436 -0.1174144840
0.3578488609 -0.8480491581 -0.3908411674
0.1342076050 0.8969021961 0.4213724829
-0.9601529149 -0.1803342323 0.2135086525
-0.5770424088 0.8138683474 0.0681202730
0.9770312244 -0.1766075463 -0.1192466397
-0.0333920593 0.5726138507 0.8191448885
-0.0008844503 -0.8120450534 -0.5835940789
0.7078357293 -0.7061250545 0.0188676362
0.3876180916 0.8420038610 -0.3752088927
0.5745437571 -0.2743024556 0.7711404762
-0.9563764912 0.2799229984 -0.0835890071
-0.4196392395 -0.7817256828 -0.4613110291
-0.9882634246 0.0696553813 0.1359541518
0.2251367861 -0.5683745188 -0.7913683301
0.2610813215 0.5641192674 -0.7833300682
0.3063059653 0.4474617526 -0.8402110661
-0.1744113340 0.5843408867 0.7925442667
0.3085247054 -0.4136105415 -0.8565855626
0.1792313428 -0.6313315820 0.7545174348
-0.8484105280 0.2876519886 -0.4443601122
-0.0492920796 0.9354460460 -0.3500156937
0.1393191906 0.8614132910 -0.4884232850
0.1144337419 -0.8123486820 0.5718343620
-0.7302800236 -0.0944190524 0.6765915531
-0.8654800105 -0.3818476923 0.3242478855
0.9146597703 0.0452206540 -0.4016871881
0.9292657935 -0.0233450162 0.3686734263
-0.9589239656 -0.2761927642 -0.0646713624
-0.2014786940 0.2287108589 0.9524167569
0.9510617224 0.2493104710 -0.1825537982
0.7930014764 -0.0774013202 -0.6042827931
0.3388691983 0.2408773605 0.9094755432
0.3528076570 -0.5182906495 -0.7790388693
0.7250293897 -0.0812118799 0.6839130168
-0.8136463996 0.5467392830 0.1976251320
-0.6516380423 0.4589319016 -0.6039448415
-0.1390455182 0.2662616754 -0.9538191988
0.7328925916 -0.6034897969 0.3141154474
-0.4426394325 0.4799167741 0.7574630174
0.2554634384 -0.8122682136 0.5243651216
0.7325113772 -0.2056966690 -0.6489344826
-0.2011914274 0.3995600515 -0.8943566262
0.1799138423 -0.2677592602 0.9465389521
0.8575139910 0.4846642375 0.1725408132
-0.8065906372 0.4035772445 0.4318992380
0.0057876035 0.9958929176 -0.0903537514
-0.2652263471 0.8086535182 -0.5251042490
0.2446183393 0.8943995365 -0.3744480434
-0.9454604992 0.2364645117 -0.2240289694
-0.3958685053 -0.0983645767 0.9130238423
0.0199158551 0.5017747968 -0.8647689935
0.6255740148 -0.6578014390 0.4194692110
0.0472142497 0.6702542096 0.7406281855
-0.4130943264 0.7710606390 0.4845808173
-0.2090537386 -0.9685597327 0.1348650380
0.4111522494 -0.8508919647 0.3270117616
-0.7180309303 -0.6386167676 0.2767674245
0.1040493180 -0.8679150514 -0.4856924984
-0.6071646513 -0.6058362906 0.5141142628
0.7376428914 -0.5741037244 -0.3553700585
0.3704848076 -0.4205741499 0.8281656789
0.5227815318 -0.7601388522 0.3858605907
0.9227676584 0.1337797755 0.3613901220
0.8973401114 -0.3277282750 -0.2955924598
0.0397403094 -0.7210054795 -0.6917888452
-0.0957655489 -0.9652644607 0.2430915064
-0.4091510862 0.7863944373 -0.4627949629
-0.8536180392 0.4340470297 0.2879920472
0.8507170369 0.4177895702 0.3189551665
0.6439873680 0.3242980892 -0.6929004396
0.3993930790 -0.9033292049 -0.1564657025
0.6568519802 -0.5807135447 -0.4809545250
0.3233281072 -0.6356922691 0.7009666712
-0.3124536150 -0.9495159539 0.0281459024
-0.3442243595 0.2743810479 0.8979001230
0.6524487929 0.3479275786 0.6732436206
0.7084386635 0.1963565701 -0.6779076319
-0.9156987256 0.0337361915 -0.4004468920
-0.0891336753 0.9723405927 -0.2158910828
-0.9067868571 -0.4145776698 -0.0765699128
-0.0997087869 0.6849066728 0.7217762863
0.1480854137 -0.7857642319 -0.6005374944
0.5911602525 0.6562674016 0.4688738141
-0.0731390222 0.1285077513 -0.9890078065
0.0531218601 -0.9319807366 -0.3585944430
-0.6654497803 0.3087550115 0.6795932112
0.1871805607 -0.6863359912 -0.7027847074
0.0081180271 0.2507139693 -0.9680271707
-0.2249369484 0.3628164548 0.9043050311
0.4024804784 -0.7657049394 -0.5017025118
0.4541121559 -0.8470746760 -0.2761279471
-0.4089255091 -0.9097118698 -0.0721404317
-0.1631894885 0.9725817866 0.1656920615
-0.8619653278 -0.5046547774 0.0483666142
0.9988425161 0.0469870875 -0.0102879399
-0.7702515023 0.6353118638 -0.0556008888
0.3929689548 -0.7949311502 0.4622335632
0.0789056801 -0.7199510931 0.6895247039
0.6013647902 0.1367876475 0.7871782064
-0.5192997973 -0.3682318574 -0.7711893540
-0.7882278298 -0.4338786840 0.4364013930
0.7581636332 0.0623806094 -0.6490736205
-0.3390219868 0.7250320834 0.5994935951
0.0582635719 -0.1341638842 -0.9892448677
-0.3064736724 0.9377321683 0.1635000570
-0.9671181810 -0.1725545786 -0.1868350648
0.0350225464 -0.6082815597 0.7929482741
-0.6673070159 0.1579713435 0.7278367957
-0.3512318312 -0.2411570788 0.9046985487
0.2889220232 0.9502985489 -0.1160031572
-0.8311381123 0.1076867460 0.5455391855
-0.3983845622 0.8782791412 0.2644153753
0.5332658303 0.6057372401 0.5905166808
-0.9996320326 0.0232183708 -0.0140252174
-0.0585280342 0.3878456700 -0.9198642321
-0.7508803655 0.0570606650 0.6579686598
0.1993541306 0.8201066602 0.5363608828
0.7579545005 0.5458484641 -0.3571476296
0.6621399252 0.5385819710 0.5210567916
0.4032026797 0.6705794546 0.6226963900
0.4393798261 -0.6662828955 -0.6025051631
0.2767943755 -0.5311221594 0.8008084200
0.5585516118 -0.5066762364 0.6567338033
-0.7429144743 0.3617303562 0.5632310657
0.8704125580 -0.3371453351 0.3587687304
0.7944799927 0.5966997858 -0.1129199133
0.6273651967 0.7786810709 -0.0082885284
0.4819460661 0.8378496882 -0.2563901117
-0.6517906765 0.0067335223 0.7583690221
0.4215511960 0.8160415153 0.3954375228
-0.2217211829 0.7308409721 -0.6455317115
-0.2628142727 0.5239427174 -0.8101929936
-0.4830378431 0.8751048118 -0.0294280561
-0.2020492727 -0.6434456546 0.7383452993
-0.0661293862 -0.6308158918 -0.7731094456
0.3702433866 0.0998924436 0.9235482307
0.9328065298 -0.2629985505 0.2463812907
-0.6115450214 0.7252272345 0.3163196883
0.0306176358 0.8036837328 -0.5942684729
0.1035533859 -0.9891753835 -0.1039651721
0.2180950764 -0.1426835802 -0.9654407976
0.0385544266 -0.3875538847 -0.9210404674
0.3053007365 -0.9127429826 -0.2714621669
-0.9744864972 -0.0373806719 0.2213114371
0.6796381911 0.7241029426 0.1173322535
0.6410071906 -0.7130458847 0.2840340613
-0.4448254638 -0.3273836968 0.8336367446
0.1159831835 0.0279505962 0.9928578273
0.0442697589 -0.9782058525 0.2028632509
0.9855375687 0.1291248284 0.1097382309
-0.4014326388 -0.7306417972 0.5522810885
-0.5652924071 0.0051654711 -0.8248744222
-0.3159579518 0.6321835845 -0.7074704857
0.0696131049 0.7104918961 -0.7002537263
0.6197648240 -0.0051047303 0.7847709887
0.7134011787 -0.5396973571 0.4469737363
0.4647914028 0.2092751201 -0.8603330030
-0.1189605191 -0.9162065513 0.3826407586
-0.0944703171 -0.1361114349 -0.9861790083
-0.7557791698 0.6466339848 0.1032585894
-0.8461363585 -0.0108217921 -0.5328565957
-0.1580094176 -0.0020111427 -0.9874355570
0.8706102982 -0.0994603508 0.4818146400
