-9.71974551e-02 -5.15783283e-01 8.51187558e-01
-1.95991068e-01 -1.14066942e-01 9.73948784e-01
-8.89156708e-01 3.44143575e-01 -3.01604954e-01
-6.38689198e-01 4.53173163e-01 6.21860267e-01
7.33329443e-01 4.96689183e-01 -4.64249699e-01
-9.99590233e-01 -7.23061157e-03 2.76962867e-02
-9.05767855e-01 -9.92194965e-02 -4.11995248e-01
6.76519573e-01 -7.26335248e-01 -1.21484052e-01
-5.60318456e-01 7.72166489e-01 2.99670053e-01
8.83059151e-01 -4.38142607e-01 1.68040449e-01
-5.25936464e-01 -4.73658898e-01 7.06426277e-01
-2.17299581e-01 -8.15575208e-01 5.36300263e-01
-3.06426469e-01 3.19473785e-01 8.96682396e-01
5.25936464e-01 4.73658898e-01 7.06426277e-01
2.26474207e-01 -1.15411981e-02 -9.73948784e-01
-7.33329443e-01 -4.96689183e-01 -4.64249699e-01
2.17299581e-01 8.15575208e-01 5.36300263e-01
-2.26474207e-01 1.15411980e-02 -9.73948784e-01
-8.83059151e-01 4.38142607e-01 1.68040449e-01
1.20553451e-01 -7.66320169e-01 -6.31046959e-01
8.79422687e-01 -1.05299353e-01 4.64249699e-01
-6.09304142e-01 -3.58108587e-02 7.92127543e-01
8.50489827e-01 3.26996896e-01 4.11995248e-01
3.06426469e-01 -3.19473785e-01 8.96682396e-01
-5.83995137e-01 -7.94173839e-01 -1.68040449e-01
6.32500990e-01 7.13426204e-01 3.01604954e-01
-1.25901567e-01 -4.24393068e-01 -8.96682396e-01
2.97220778e-01 -9.30396930e-01 -2.14525898e-01
-1.44048671e-01 -9.43105423e-01 -2.99670053e-01
-6.76519573e-01 7.26335248e-01 -1.21484052e-01
6.84543631e-01 -1.79894227e-01 -7.06426277e-01
-5.66964576e-01 6.25246509e-01 -5.36300263e-01
-1.62310554e-01 9.63137541e-01 2.14525898e-01
1.62310554e-01 -9.63137541e-01 2.14525898e-01
-6.84543631e-01 1.79894227e-01 -7.06426277e-01
-6.32500990e-01 -7.13426204e-01 3.01604954e-01
-3.59919280e-01 -6.95519891e-01 -6.21860267e-01
5.83995138e-01 7.94173839e-01 -1.68040449e-01
1.25901567e-01 4.24393068e-01 -8.96682396e-01
2.68331375e-01 9.55635861e-01 1.21484052e-01
3.59919280e-01 6.95519891e-01 -6.21860267e-01
8.89156708e-01 -3.44143575e-01 -3.01604954e-01
6.38689198e-01 -4.53173163e-01 6.21860267e-01
-1.20553451e-01 7.66320169e-01 -6.31046959e-01
5.57939924e-01 2.47461101e-01 -7.92127543e-01
9.71974551e-02 5.15783283e-01 8.51187558e-01
-3.22806177e-01 4.13854942e-01 -8.51187558e-01
8.91710222e-01 4.51758559e-01 -2.76962867e-02
-2.97220778e-01 9.30396930e-01 -2.14525898e-01
5.66964576e-01 -6.25246509e-01 -5.36300263e-01
2.44117121e-01 -7.36333190e-01 6.31046959e-01
-5.57939924e-01 -2.47461101e-01 -7.92127543e-01
1.95991067e-01 1.14066942e-01 9.73948784e-01
-2.44117121e-01 7.36333190e-01 6.31046959e-01
-8.79422687e-01 1.05299353e-01 4.64249699e-01
1.44048671e-01 9.43105423e-01 -2.99670053e-01
-2.68331375e-01 -9.55635861e-01 1.21484052e-01
-8.91710222e-01 -4.51758559e-01 -2.76962867e-02
9.99590233e-01 7.23061162e-03 2.76962867e-02
5.60318456e-01 -7.72166489e-01 2.99670053e-01
9.05767855e-01 9.92194964e-02 -4.11995248e-01
-8.50489827e-01 -3.26996896e-01 4.11995248e-01
3.22806177e-01 -4.13854942e-01 -8.51187558e-01
6.09304142e-01 3.58108587e-02 7.92127543e-01
