5.10338861e-01 -4.46194398e-01 7.35163115e-01
-3.66504934e-01 -2.25713889e-01 9.02622498e-01
9.08063439e-01 -3.92907139e-01 -1.45068161e-01
-6.04023791e-03 -7.90358146e-01 -6.12615309e-01
3.64236463e-01 -5.71722829e-01 -7.35163116e-01
6.56295979e-01 1.69737392e-01 -7.35163115e-01
6.54283929e-01 7.42204667e-01 -1.45068161e-01
-3.21979816e-02 -4.29227114e-01 -9.02622498e-01
-9.38686633e-01 -1.33078482e-01 3.18052705e-01
9.87815240e-01 -5.63584980e-02 1.45068161e-01
-4.59674207e-01 6.42963534e-01 -6.12615309e-01
2.51651580e-01 -9.56883854e-01 1.45068161e-01
6.51682178e-01 -7.58492148e-01 -7.11606178e-11
6.51691070e-01 -6.29539217e-01 -4.23059244e-01
3.07309594e-11 1.41239039e-11 -1.00000000e+00
-7.53541801e-01 -2.38489491e-01 -6.12615309e-01
7.82251233e-01 -1.13072950e-01 6.12615309e-01
5.24199051e-01 -7.39077960e-01 4.23059244e-01
9.47840874e-01 2.09798770e-02 -3.18052705e-01
1.01410411e-01 -4.18316333e-01 9.02622498e-01
-2.27396002e-11 -1.05676036e-10 1.00000000e-00
-8.32286010e-01 -5.35028247e-01 1.45068161e-01
4.69447517e-01 6.35862809e-01 -6.12615309e-01
-6.99317154e-01 -3.68317800e-01 6.12615309e-01
8.64891325e-01 2.70155273e-01 4.23059244e-01
-5.40918495e-01 -7.26930573e-01 4.23059244e-01
-1.57195283e-01 8.92362325e-01 -4.23059244e-01
-5.03693732e-01 8.51614850e-01 -1.45068161e-01
4.13767584e-02 6.76626306e-01 -7.35163115e-01
5.82059471e-01 3.47479447e-01 7.35163115e-01
8.00110990e-01 4.25256722e-01 -4.23059244e-01
-7.54487713e-01 -5.74099964e-01 -3.18052705e-01
1.34190159e-01 -7.78906596e-01 6.12615309e-01
-6.30723736e-01 2.48440663e-01 -7.35163115e-01
8.37635008e-01 -4.44083406e-01 3.18052705e-01
-5.66391929e-01 5.51273676e-01 6.12615309e-01
-3.27922918e-01 2.78817478e-01 9.02622498e-01
9.22749768e-01 3.85399619e-01 7.30898068e-11
-9.65583776e-01 -2.15877745e-01 -1.45068161e-01
-9.30698603e-02 -9.85034634e-01 -1.45068161e-01
4.29180015e-01 -3.28198233e-02 9.02622498e-01
-4.31185465e-01 -5.23081532e-01 -7.35163115e-01
1.63837425e-01 3.98032566e-01 9.02622498e-01
-8.13914589e-02 9.96682211e-01 4.44708998e-11
-7.66032622e-01 6.26218213e-01 1.45068161e-01
-8.58505066e-01 2.89810159e-01 4.23059244e-01
3.98269521e-01 -1.63260573e-01 -9.02622498e-01
3.58851813e-01 9.22052387e-01 1.45068161e-01
2.78342082e-01 3.28326531e-01 -9.02622498e-01
-7.79151037e-01 5.40153810e-01 -3.18052705e-01
7.49808729e-01 -2.49978706e-01 -6.12615309e-01
2.72945889e-01 9.07933378e-01 -3.18052705e-01
-6.75139298e-01 6.10091948e-02 7.35163115e-01
-4.16635280e-01 8.51620526e-01 3.18052705e-01
-9.73052456e-01 2.30583864e-01 1.98239474e-11
-2.66652709e-01 -6.23242751e-01 7.35163115e-01
-1.63504964e-01 -9.33867551e-01 3.18052705e-01
-1.50606324e-01 6.60948507e-01 7.35163115e-01
-2.26244653e-01 3.66177529e-01 -9.02622498e-01
-4.18168968e-01 -1.02016372e-01 -9.02622498e-01
-5.19988032e-01 -8.54173546e-01 -6.17019834e-11
3.49267691e-01 7.09023669e-01 6.12615309e-01
1.03331847e-02 9.06043101e-01 4.23059244e-01
-8.97263018e-01 1.26253525e-01 -4.23059244e-01
6.81191869e-01 6.59408913e-01 3.18052705e-01
3.12851987e-01 -8.94967101e-01 -3.18052705e-01
-3.97343759e-01 -8.14333355e-01 -4.23059244e-01
