3.34720583e-01 2.63884937e-01 9.04631912e-01
5.90193936e-01 2.94488175e-01 -7.51612416e-01
-2.27187505e-01 8.42204869e-01 4.88972501e-01
5.97944904e-01 6.48191441e-01 -4.71479646e-01
-9.84876783e-01 9.21580128e-02 -1.46695019e-01
7.10516756e-01 1.40862356e-01 6.89454962e-01
-4.56053151e-01 8.13170649e-01 -3.61602292e-01
1.67297475e-01 -3.70477047e-01 -9.13633388e-01
2.27187505e-01 -8.42204869e-01 4.88972501e-01
-5.07101422e-01 -5.51948582e-01 6.61985155e-01
9.52863557e-01 3.03293764e-01 8.01362576e-03
7.50093378e-01 -2.87919607e-01 5.95385003e-01
4.96821098e-01 8.12795281e-01 3.04209464e-01
-3.85983648e-01 -9.14990948e-01 -1.17490551e-01
3.20847039e-02 -4.59966751e-01 8.87373976e-01
9.10705035e-01 -3.77644379e-01 1.67352880e-01
1.84601376e-01 1.17793227e-01 -9.75711302e-01
-3.20847040e-02 4.59966751e-01 8.87373976e-01
-5.90193936e-01 -2.94488175e-01 -7.51612416e-01
-3.51270493e-01 9.32111890e-01 8.82019757e-02
7.05144004e-01 -7.08303507e-01 -3.28163562e-02
1.52546831e-01 7.62095468e-01 6.29255304e-01
-8.60813740e-01 -3.14883135e-01 -3.99792649e-01
-8.21717219e-01 8.46023662e-02 -5.63563040e-01
-9.10705035e-01 3.77644379e-01 1.67352880e-01
2.21227663e-01 8.31253505e-01 -5.09958702e-01
9.46287684e-02 9.73190904e-01 2.09647998e-01
-4.13517855e-01 1.57958760e-01 8.96707176e-01
-9.41998176e-01 -2.23081125e-02 3.34893475e-01
5.11968438e-01 -1.19922925e-01 -8.50574334e-01
2.41517458e-01 5.29150736e-01 -8.13412576e-01
4.56053151e-01 -8.13170649e-01 -3.61602292e-01
-5.52737444e-01 5.03717814e-01 -6.63872110e-01
-6.33882142e-02 9.72041137e-01 -2.26075117e-01
3.85983648e-01 9.14990948e-01 -1.17490551e-01
8.60813740e-01 3.14883135e-01 -3.99792649e-01
5.52737444e-01 -5.03717814e-01 -6.63872110e-01
3.51270492e-01 -9.32111890e-01 8.82019757e-02
-7.10516756e-01 -1.40862356e-01 6.89454962e-01
-2.21227663e-01 -8.31253505e-01 -5.09958702e-01
4.06497758e-01 -5.46376540e-01 7.32296506e-01
-7.39359384e-01 -6.71129822e-01 -5.41345274e-02
5.07101422e-01 5.51948582e-01 6.61985155e-01
-7.50093378e-01 2.87919607e-01 5.95385003e-01
8.25058623e-01 -4.54815340e-01 -3.35275120e-01
-1.84601376e-01 -1.17793227e-01 -9.75711302e-01
4.13517854e-01 -1.57958760e-01 8.96707176e-01
8.21717219e-01 -8.46023661e-02 -5.63563040e-01
2.15728768e-11 -3.25347874e-11 1.00001770e+00
7.39359384e-01 6.71129822e-01 -5.41345274e-02
-2.41517458e-01 -5.29150736e-01 -8.13412576e-01
1.62661773e-01 -7.29771663e-01 -6.64041383e-01
-8.01292723e-01 -4.70805513e-01 3.69168267e-01
-3.34720583e-01 -2.63884937e-01 9.04631912e-01
9.41998176e-01 2.23081125e-02 3.34893475e-01
-4.96821098e-01 -8.12795281e-01 3.04209464e-01
-5.11968438e-01 1.19922924e-01 -8.50574334e-01
-9.52863557e-01 -3.03293763e-01 8.01362561e-03
-1.62661772e-01 7.29771663e-01 -6.64041383e-01
8.01292723e-01 4.70805513e-01 3.69168267e-01
-8.25058622e-01 4.54815340e-01 -3.35275120e-01
6.35283615e-01 -6.69949927e-01 3.84181499e-01
-1.67297474e-01 3.70477047e-01 -9.13633388e-01
9.84876783e-01 -9.21580127e-02 -1.46695019e-01
-6.35283615e-01 6.69949927e-01 3.84181499e-01
-1.52546831e-01 -7.62095468e-01 6.29255304e-01
-5.97944904e-01 -6.48191441e-01 -4.71479646e-01
-7.05144004e-01 7.08303507e-01 -3.28163564e-02
-9.46287685e-02 -9.73190904e-01 2.09647998e-01
-4.06497758e-01 5.46376540e-01 7.32296506e-01
6.33882141e-02 -9.72041137e-01 -2.26075117e-01
