1.33635204e-01 -9.54928438e-01 2.65062080e-01
-5.23636535e-01 -8.32354802e-01 1.81640888e-01
-1.63871784e-01 -1.42021574e-01 9.76213520e-01
5.23636535e-01 8.32354802e-01 1.81640887e-01
5.38112839e-01 -4.74498638e-01 6.96633113e-01
-8.21546277e-01 -5.63805816e-01 8.47713768e-02
-5.38112839e-01 4.74498638e-01 6.96633113e-01
4.19438058e-01 6.45781917e-01 -6.37986183e-01
5.41053647e-01 -8.40472377e-01 2.94558176e-02
2.65332012e-01 5.39207308e-01 7.99292350e-01
1.30081418e-01 -7.30557729e-01 6.70355020e-01
-9.67532527e-01 1.27116586e-01 2.18462743e-01
-2.65332012e-01 -5.39207308e-01 7.99292351e-01
-8.65664749e-01 -5.85512858e-02 -4.97179715e-01
-6.20476168e-01 -3.11922217e-01 -7.19514684e-01
-4.59951330e-01 1.08217036e-01 8.81333721e-01
-5.69478300e-01 1.02701287e-01 -8.15556724e-01
1.89952581e-01 9.81791134e-01 2.05487514e-03
5.22037292e-02 5.60475857e-01 -8.26515126e-01
7.91405865e-01 -1.17302825e-01 5.99939335e-01
-7.57335643e-01 3.79162838e-01 -5.31666293e-01
-1.48291377e-01 3.90458330e-01 9.08607569e-01
4.01018302e-01 -4.88646273e-01 -7.74852054e-01
-1.33635204e-01 9.54928438e-01 2.65062079e-01
1.88772572e-01 -7.93291063e-01 -5.78830000e-01
2.74713658e-01 2.22104038e-01 -9.35513753e-01
8.01106245e-01 -4.97553471e-01 3.32678668e-01
-1.89952581e-01 -9.81791134e-01 2.05487526e-03
-4.78966386e-01 7.69992806e-01 4.21556152e-01
-2.74713658e-01 -2.22104038e-01 -9.35513753e-01
-5.22037296e-02 -5.60475858e-01 -8.26515125e-01
1.75638032e-01 8.92199044e-01 -4.16082844e-01
-2.30246801e-01 -8.44852743e-01 4.82927145e-01
8.65664749e-01 5.85512858e-02 -4.97179715e-01
-7.91405865e-01 1.17302825e-01 5.99939335e-01
-4.19438059e-01 -6.45781917e-01 -6.37986182e-01
-9.75753627e-01 -2.09365264e-01 -6.37960713e-02
-8.78982589e-01 -2.66299194e-01 3.95577054e-01
6.14896253e-01 5.96935539e-01 5.15344056e-01
4.78966386e-01 -7.69992806e-01 4.21556152e-01
-5.41053647e-01 8.40472377e-01 2.94558176e-02
5.61970863e-01 -7.26196916e-01 -3.96004952e-01
-1.51954938e-01 1.84613735e-01 -9.70984361e-01
-1.75638032e-01 -8.92199044e-01 -4.16082844e-01
6.20476167e-01 3.11922217e-01 -7.19514684e-01
-8.00511128e-01 -4.78440319e-01 -3.60930100e-01
2.06956550e-01 -9.61491885e-01 -1.80829219e-01
8.78982589e-01 2.66299194e-01 3.95577054e-01
-5.97566671e-01 -2.62078334e-01 7.57787675e-01
-1.30081417e-01 7.30557729e-01 6.70355020e-01
-8.01106245e-01 4.97553471e-01 3.32678668e-01
-6.14896253e-01 -5.96935538e-01 5.15344056e-01
9.75753627e-01 2.09365264e-01 -6.37960718e-02
7.57335643e-01 -3.79162838e-01 -5.31666293e-01
5.69478299e-01 -1.02701287e-01 -8.15556725e-01
2.30246802e-01 8.44852743e-01 4.82927144e-01
-9.60624182e-01 2.02011216e-01 -1.90759905e-01
-5.61970863e-01 7.26196916e-01 -3.96004952e-01
-2.06956550e-01 9.61491885e-01 -1.80829219e-01
-1.88772572e-01 7.93291063e-01 -5.78830000e-01
4.59951331e-01 -1.08217036e-01 8.81333721e-01
-5.59927118e-01 -7.92793551e-01 -2.40740179e-01
9.67532527e-01 -1.27116586e-01 2.18462743e-01
1.51954938e-01 -1.84613735e-01 -9.70984361e-01
1.63871784e-01 1.42021575e-01 9.76213520e-01
8.00511128e-01 4.78440319e-01 -3.60930100e-01
8.21546277e-01 5.63805816e-01 8.47713762e-02
8.24068061e-01 -5.60530503e-01 -8.19509924e-02
-4.01018303e-01 4.88646273e-01 -7.74852054e-01
1.48291378e-01 -3.90458330e-01 9.08607569e-01
5.59927118e-01 7.92793551e-01 -2.40740179e-01
9.60624182e-01 -2.02011216e-01 -1.90759906e-01
-8.24068061e-01 5.60530503e-01 -8.19509923e-02
5.97566671e-01 2.62078334e-01 7.57787674e-01
