0.9486378401 0.3072300295 0.0754715658
0.6695741415 -0.4172430577 -0.6144743281
0.1149519021 0.2098628862 -0.9709498593
-0.5646378213 -0.6883658191 0.4553423216
0.2434458518 0.6899619605 0.6816792576
-0.1840572217 -0.6145066893 -0.7671404487
0.8481641180 0.4889799337 0.2037553764
0.6740371982 0.5260847975 0.5185640186
0.6299894423 -0.7750988390 -0.0483227925
0.0231366103 -0.4728388287 -0.8808451279
0.2360393611 0.9460563267 -0.2219523522
-0.7527493236 -0.1717810209 0.6354995961
0.7179579990 -0.0553867246 -0.6938794005
-0.1296758716 0.9139700667 -0.3845034273
0.1311708670 -0.3980712151 -0.9079281422
-0.7266256252 -0.6825901688 0.0780119366
-0.3286613454 0.1513126289 0.9322479329
-0.8496772621 0.0520797827 0.5247249246
0.1553025429 -0.5173949041 -0.8415364718
0.3841348027 0.8350036217 0.3939662487
0.8520116031 0.3261095022 -0.4095470923
0.3690135109 0.6884498527 0.6243923680
0.5923446144 0.3482256562 0.7265443897
0.2177546142 0.6020139970 0.7682200696
0.9817691940 0.1775581054 0.0678407613
0.0241041829 0.9363926884 0.3501252940
-0.2402640696 -0.8394302369 0.4874731318
-0.1049826740 0.2502414581 0.9624748572
0.0122329970 -0.9952203963 0.0968850686
-0.8479811221 0.3650048486 0.3843168966
-0.8848865256 -0.3265770844 -0.3321494315
0.4886808073 -0.7757436459 -0.3992654060
0.8563835423 -0.5135538074 0.0535697251
-0.7812650993 -0.5996267104 0.1734146844
0.9939331810 -0.0989151795 0.0480896969
0.9004023817 0.1016408878 0.4230185349
-0.8456948155 0.4088056087 -0.3430426406
-0.0457224228 -0.9642675153 -0.2609552048
0.2841997542 -0.6678353569 -0.6879145556
0.6404034133 0.2213063290 0.7354637836
0.9537866391 0.0408230179 0.2976987206
-0.8531859464 -0.0383064178 -0.5201983845
0.8433853998 -0.3605428884 -0.3983841025
-0.3166177208 0.8022716375 -0.5060765145
-0.7721318127 -0.4044872929 0.4901045743
-0.1637658414 0.3673980002 0.9155323362
0.8452858923 0.4260017712 0.3225124046
0.5877317376 0.8022883715 0.1044259242
-0.8601050500 0.4943901796 -0.1256887159
0.8256880790 0.3562531274 0.4374047386
-0.7714740375 0.4092036560 0.4872167663
0.1286772522 -0.8953740849 -0.4263184407
-0.6798681568 -0.2803500225 0.6776305441
-0.6162071613 0.5562255308 0.5575857721
-0.1748801033 0.8495760475 -0.4976318811
-0.3329345027 -0.9347068003 0.1244098647
0.3504094658 -0.7626640153 0.5436513644
-0.5362287458 0.1479034139 -0.8310134249
0.8125228737 0.5597033474 -0.1629071599
-0.5911701412 -0.4971355484 0.6351173991
-0.4748462401 -0.4027042858 -0.7825281506
0.1734483069 -0.7371075643 -0.6531371399
-0.5500457648 0.3601477797 0.7534873811
-0.9839944052 0.1311903271 -0.1205989579
0.7567329398 -0.6296025934 -0.1759426956
-0.6262510990 0.2071087513 -0.7516086256
-0.0593182638 0.5671151118 -0.8214997221
0.9196253165 0.2606116430 -0.2938891776
0.7259874529 0.5692962838 -0.3858030060
-0.2145845375 0.3868398129 -0.8968324456
-0.3299500078 0.3122740528 -0.8908523493
-0.7297584994 -0.6813076069 -0.0572055714
0.4441497053 -0.8361571663 0.3218264011
0.1996822779 -0.1611748251 0.9665141818
0.9461391218 -0.3165941952 -0.0677412566
0.7636946166 -0.4050791271 -0.5026742815
-0.1190897146 0.7274230169 -0.6757761422
0.3894390188 -0.5875965686 -0.7092725310
0.9729845830 -0.1673995431 0.1589918052
0.7901723958 0.6117111679 -0.0379082039
-0.7618372723 -0.5314972881 -0.3702898910
-0.9140582935 0.0334940078 0.4041974610
0.3605449396 -0.3446068303 -0.8667487981
-0.3270623248 0.0209010398 -0.9447716032
-0.8811348674 -0.0776021359 0.4664539141
-0.3721446609 -0.5809208234 0.7239056211
0.4958205707 -0.7002571602 -0.5136164632
0.2260916875 -0.8292912324 0.5110367899
0.3397660065 -0.9040801129 -0.2592261761
-0.3179999181 -0.5605498074 -0.7646306072
-0.0057646048 0.9421128145 -0.3352464974
-0.0709143865 -0.9892763219 -0.1276851941
-0.1014778529 0.9005110042 0.4228264144
-0.4095861134 -0.8809461857 -0.2370085095
0.6435380440 -0.2867775189 0.7096600880
0.7389869259 0.4029319457 0.5399483036
0.1582685151 -0.8265482497 -0.5401565217
0.3554773694 -0.4618729113 0.8125941506
0.6891560395 0.6009560051 0.4048652037
-0.3442703460 -0.8487274889 0.4014219456
-0.8530196657 -0.1672159597 -0.4943645140
-0.3841866058 0.2626852721 0.8850972262
-0.0881042807 -0.8185455097 -0.5676450337
-0.8870817861 0.4411790890 0.1358194250
0.6855820639 -0.5138531672 -0.5156861024
0.7931986222 -0.1944954551 0.5770679888
0.5691107773 -0.5101065139 0.6449064022
-0.5829483270 -0.5979886520 0.5500734679
0.9351797473 -0.2322259714 0.2674134224
-0.4005676268 0.8280813120 -0.3922077474
-0.6872875934 -0.3981591149 0.6075401906
-0.4734004974 0.4790704970 0.7391775348
-0.5578032477 -0.4749249444 -0.6806627902
0.0950653938 -0.9468849360 -0.3071994285
-0.0998751037 0.9494332085 0.2976601186
-0.5874163477 0.7726134758 -0.2408535891
-0.6185903105 0.3483403527 -0.7042762429
0.4742226546 -0.8765482464 0.0823167401
0.0609645244 -0.9815916466 -0.1810004589
-0.9251576984 -0.3736198890 -0.0670179942
-0.3241655575 0.9422521399 -0.0841284503
0.3947043151 0.3902913873 -0.8317939268
0.8490202309 -0.4410314920 -0.2909568190
0.0237997343 0.8817267368 0.4711597757
-0.5874240656 -0.3520741432 -0.7286815249
0.2644034803 -0.8462887337 -0.4624783009
0.8080757401 -0.5603249063 0.1817954830
0.2796370352 -0.7666016338 -0.5780355211
0.9845924957 -0.0281624669 0.1725818437
0.5715089806 0.1173264859 0.8121649960
0.3550562994 -0.6767155562 0.6449737051
0.0127485436 -0.0007297936 0.9999184677
-0.9118976326 0.1758881536 -0.3708181024
-0.1793569450 -0.7379334187 -0.6506038394
-0.4851933176 -0.3701852210 0.7921807538
0.5822156421 -0.7593933416 -0.2904250314
-0.9594482331 0.1836729610 0.2138301460
0.7707510539 0.0637615065 0.6339379175
-0.9617043969 -0.2498325640 -0.1127312862
-0.4279414108 0.3734683513 -0.8230355639
0.2432818345 -0.9610516029 0.1311249995
-0.3561955637 0.7170489662 -0.5991372968
-0.9549548712 -0.0926518341 -0.2819163556
-0.1200342160 -0.9459393520 0.3013146683
0.4462519701 0.2633216483 -0.8552899442
-0.0061387848 -0.6848910483 0.7286196315
0.2680690147 0.8463049227 0.4603335543
0.8994298696 0.4298577129 0.0790459127
0.1274093333 0.3276062952 0.9361842645
0.5965705644 0.5481844073 -0.5861718326
-0.5413091029 -0.7664444576 0.3457561981
-0.4371050104 0.2322217073 -0.8689144311
-0.8511753943 0.1812589274 -0.4925907525
-0.8443584293 -0.3005999863 0.4435070362
0.5960295303 -0.6120339094 -0.5197723470
-0.4715326254 -0.2444089179 0.8473023451
0.7283163748 -0.6831878687 -0.0530056060
-0.0811767275 0.4422385179 -0.8932163412
-0.6271895862 0.0603719481 -0.7765233099
-0.1821860530 0.6731669536 0.7166969336
0.4550511624 0.1445540672 0.8786538347
-0.9501217753 -0.1853932423 0.2507946526
0.7715224162 0.6051603731 0.1963010040
-0.2869278364 0.5701020670 -0.7698415745
-0.9794360250 -0.1690904919 0.1100612487
-0.5003373085 -0.2758106137 -0.8207259489
-0.4796699977 0.6549557283 -0.5839089718
0.3335771393 0.8926726436 -0.3030871880
0.6215239465 -0.1508176731 0.7687405371
0.3743448491 0.9179792169 0.1310728475
0.4584451710 -0.3664268852 0.8096662047
-0.5543543310 0.7313435841 0.3972755186
0.5974228930 0.7122439422 0.3685029900
0.7890421332 0.0498660819 -0.6123119189
-0.7861791304 0.2978215741 -0.5415022482
-0.9972620703 -0.0070533864 -0.0736112283
-0.0079742579 -0.3491118541 0.9370471304
0.5621700875 -0.3925892002 0.7279000705
-0.9692259305 0.2426350103 -0.0415854235
0.8707091948 0.2304719556 0.4344515805
-0.9794955956 -0.0636537842 0.1911454263
0.6913649174 -0.5961631250 -0.4081716298
0.0524121043 -0.7910299069 -0.6095282255
-0.2560853079 -0.8721063018 -0.4169543301
0.9145087269 0.0598667581 -0.4001121839
-0.9431342386 -0.2257541816 -0.2439935605
0.1408195899 0.9900263902 0.0041940121
0.7959681943 0.4504385656 -0.4044004604
0.2384974928 -0.4306126162 0.8704548930
-0.5610799310 0.7835809713 0.2668148654
-0.0370013168 -0.2269643198 -0.9731999281
-0.5717780838 0.1177036670 0.8119209750
0.0837709699 0.6021438881 -0.7939805807
0.7451773641 -0.5903546845 0.3101484203
-0.2235103519 -0.9514545052 0.2116068219
-0.3333906514 0.7655340985 0.5502801265
-0.1750176579 -0.1737712935 -0.9691090532
-0.1009704381 0.8351507696 0.5406738043
-0.9627757111 0.0424218697 0.2669518965
0.7755375311 -0.4880155638 -0.4004776490
-0.0384333670 0.1331491223 0.9903505377
-0.2705511302 0.8732232264 -0.4053187423
-0.7843833413 -0.1005295557 -0.6120756345
0.1484401039 0.0770654723 -0.9859140168
0.5956482096 -0.6918057051 -0.4081765266
0.8886319514 -0.3687109448 0.2727370420
0.3714988519 0.1548076928 -0.9154360607
-0.2338011043 -0.9054192101 0.3543347254
-0.0774124671 -0.1124927778 0.9906324671
-0.6759868170 0.0945200428 0.7308267817
-0.5376554451 0.6609865691 0.5234724232
-0.2215851783 0.9447245185 0.2416518010
0.0143830768 0.9810323694 -0.1933096409
-0.9483115710 0.2682156784 -0.1696039923
-0.6412043236 -0.6908500703 0.3340407098
-0.7633408067 -0.5052316605 0.4025565576
0.0203425073 -0.8656421261 -0.5002498296
-0.7452726072 0.6628943200 0.0716928265
0.3095470658 -0.0855386427 -0.9470289091
-0.8773498795 0.1656654242 0.4503467065
-0.7336612306 0.6100153207 -0.2993701842
-0.3970432528 0.0238523519 0.9174899022
-0.2686111117 0.5831054182 0.7667047293
-0.6077877784 -0.2211270558 -0.7626905281
0.4876735885 -0.4975025152 -0.7174020619
-0.2335909680 0.9573116262 -0.1702636485
0.2400112328 -0.5484431364 0.8010023310
0.3847522327 -0.9008146996 0.2012426309
-0.0666861004 -0.0969422289 -0.9930534569
0.4371158170 -0.2322144393 0.8689109371
0.7876071405 -0.0650613202 0.6127332346
0.5616974194 0.2384498686 -0.7922358672
0.2653495458 0.9417921065 0.2064394503
0.7759344997 0.5468986799 0.3143683923
-0.0138789004 -0.8581296056 0.5132455125
0.4580438230 -0.7715486179 0.4414845257
0.9049905940 -0.1662840445 0.3915886123
-0.7193513864 -0.6682488789 -0.1896760890
0.0306952268 0.3614722212 -0.9318774792
0.6547943864 -0.6845739434 0.3203167613
0.1393616558 -0.9893059696 0.0430351888
-0.6875903101 -0.6927698573 0.2174614685
-0.8069549775 -0.5898117537 0.0307532009
-0.8752774311 0.4061468784 0.2625531027
0.6232557099 -0.7555550914 0.2017147092
0.4540942995 -0.2429637180 -0.8571855102
0.4374460082 -0.8844224824 -0.1625972400
0.3840822664 0.7680452834 0.5124326837
-0.0784835168 0.4661343113 0.8812259310
0.2010663191 -0.9534257418 -0.2248370305
0.3458770497 0.5964797379 0.7242796344
0.5335717837 0.4699156315 0.7031930396
0.6575589088 -0.4118060074 0.6308978473
-0.7505301212 0.3112057507 0.5829712839
0.3512906458 0.3898841613 0.8512257180
-0.9563473009 0.1558998733 -0.2471741685
0.9374226116 -0.3109380989 0.1567046453
-0.4423617068 -0.7040408388 -0.5555561336
-0.3180941864 -0.9478638622 -0.0192402551
0.3471432072 -0.3358574596 0.8756091369
-0.3858392631 0.6174111494 -0.6855155254
0.2789580325 0.0462945848 -0.9591867532
-0.3637680470 -0.6818086536 0.6346729614
0.8977653451 0.3016847819 0.3209418601
-0.6703233907 0.6027398801 -0.4328639379
0.6434253848 0.7580493822 -0.1066063239
0.8345031075 0.5449998878 0.0811152629
-0.1153832935 -0.4249297993 -0.8978426150
-0.1075994764 -0.9819165250 0.1557635730
-0.6884564882 -0.2955446081 -0.6623300147
0.3189232924 0.5117652990 -0.7977369317
0.8482800474 0.1268786298 -0.5141233067
0.4360456582 0.8187591261 -0.3734938786
0.2656905480 0.7743538394 0.5742688081
-0.3543818745 -0.2225714757 0.9082265275
-0.5257876623 -0.8299368122 -0.1864194787
-0.0525356574 0.6525178047 0.7559500772
0.4661191492 -0.4893964645 0.7370373392
0.1020588737 -0.2744744213 -0.9561630501
0.8231798545 -0.2836955116 0.4918249525
-0.2736660154 -0.6658716359 -0.6940618680
-0.7164847988 0.2062340434 0.6664210774
-0.6333014673 -0.7624372848 -0.1327352189
0.3993909080 -0.9158216265 -0.0419243495
0.5457537416 0.7790626977 -0.3085679286
-0.4424331575 -0.5216201767 -0.7294966021
0.9536325316 -0.2420299980 -0.1789035349
0.4327157702 -0.1118076267 -0.8945703532
-0.2444437888 -0.7562914040 0.6068529858
-0.3421607539 0.8350651211 0.4308042038
-0.4552753609 0.8162374218 0.3556414165
-0.4025346149 0.8989650208 -0.1727071953
-0.9893043287 -0.1438500733 -0.0241681955
-0.2670252874 0.0384712134 0.9629213164
0.3267931092 -0.8913121669 0.3142751740
0.5865548989 -0.5173282053 -0.6231571861
0.3185344644 0.8428436049 -0.4337631297
-0.1374548270 0.5691531092 0.8106607853
0.4899618924 0.8512845216 0.1877551789
0.9917261166 0.1146710913 -0.0577048563
0.0239786367 0.8116973389 0.5835858592
0.9766965604 0.1090704688 0.1848444259
-0.4242828026 -0.8995255119 -0.1041055086
-0.1053485283 0.9638034571 -0.2449175039
0.5617050814 -0.2683283181 -0.7826156881
0.0401216018 0.4959372989 -0.8674309498
0.0463795110 -0.5878957828 -0.8076060237
0.9137379629 -0.0300469261 0.4051914577
-0.5232331359 -0.1396868147 -0.8406632378
0.9130101299 -0.0857307767 -0.3988266999
-0.8112162915 0.5840209634 -0.0291143023
-0.9426304871 0.0445616802 -0.3308504519
0.6672610643 0.4297222251 -0.6083596644
-0.0076036079 -0.4691771495 0.8830713377
-0.1458757568 -0.3022605021 -0.9419972678
-0.5065049540 -0.8023686593 -0.3156853912
-0.1790674691 -0.9614127982 -0.2088546696
0.7130901814 -0.1738700763 0.6791697798
-0.9173209825 -0.3911848861 0.0741390585
0.2284380480 0.6164697752 -0.7535124912
0.2153771437 -0.8946505683 0.3914243817
-0.4732387962 0.8374470841 -0.2733631707
-0.0759787625 0.8116320900 -0.5792068527
-0.2234782990 0.0990338626 -0.9696647585
-0.5244638794 0.7648542516 -0.3740796881
0.5138164473 0.6602436929 -0.5477872986
0.4079419752 0.2713749042 0.8717448057
-0.8034759249 0.1797492153 0.5675532202
-0.8062057128 -0.5819212659 -0.1067707306
-0.6237131342 -0.0190312551 0.7814216132
-0.2192751032 0.7714675218 -0.5972907935
0.2153507405 0.9066453561 -0.3627923054
-0.0927044478 0.7528846647 0.6515907972
-0.0039832342 -0.9699767995 0.2431648460
-0.7039221456 0.3888223126 -0.5943995476
-0.6704587222 -0.6013775592 0.4345458930
0.9504904439 0.2410397477 0.1961319863
-0.8932774208 0.3956470390 -0.2133515173
-0.3067661592 0.6809882037 0.6649432983
0.5203190292 -0.8528106155 -0.0445214774
0.6221102297 0.3389236719 -0.7057688054
0.7323057458 -0.3059855035 0.6083594056
-0.6631985010 -0.4210620230 -0.6187685521
0.9218061458 -0.3849117426 0.0460041312
-0.7957787006 0.4842764691 0.3636104524
-0.6843239161 0.4395490383 0.5818053117
-0.8823861377 0.4704901586 0.0058064291
-0.3053201922 -0.9391037663 -0.1576822639
-0.9788776675 0.0196404898 -0.2035012611
-0.5625832103 0.8157190624 0.1345456902
-0.2239821894 0.9019582772 0.3691926936
-0.6097345877 0.4719914837 -0.6367478087
-0.5585461456 -0.6558152977 -0.5078705530
-0.3806006543 -0.3256138876 -0.8655164575
0.4168514821 0.4877256468 0.7670453281
0.9828201007 -0.1717530482 -0.0675687811
0.6773052812 0.7355765340 0.0135911240
-0.8204879907 0.5101862188 -0.2578943180
-0.6174532731 0.2307133681 0.7520124981
0.2089798510 0.4171872996 0.8844671723
0.7655460560 0.4794558406 0.4290236977
-0.7025023787 -0.1623801160 -0.6929091613
0.6774531228 0.7177694590 0.1608237237
0.3607407081 0.6050373265 -0.7097858656
-0.6599154476 -0.1538212887 0.7354254640
-0.9976995073 -0.0349607685 0.0580813037
-0.2801355676 -0.2512951190 -0.9264852006
0.4913980426 0.0119749178 0.8708527804
-0.4477552820 0.7539917200 0.4806367586
-0.0344867152 0.8828444521 -0.4683976301
0.1443846158 0.7550972467 0.6395164039
0.7729333882 -0.5634824412 -0.2916530745
-0.0549062048 -0.7408729901 -0.6693971326
-0.8386767494 -0.2922679561 -0.4595658297
0.8650063447 -0.0074415348 -0.5017057377
-0.6388557992 0.6347756674 0.4346528728
-0.0131301831 -0.9230985862 -0.3843391711
0.2460571066 0.1778479025 -0.9527990469
-0.5324833156 0.0008708150 -0.8464400512
-0.3348154470 0.9410517281 0.0481690922
-0.4421295202 -0.8427855223 0.3069756516
0.2791439964 -0.5548436895 -0.7837264251
0.1090877150 -0.8113282064 0.5743225679
0.4847633825 0.6719140402 0.5599428413
-0.6560687573 0.3385163748 0.6745223863
0.6246568222 0.6189293627 -0.4761620507
0.1731393345 -0.6297839757 -0.7572284430
0.9974138186 0.0415943708 0.0586138449
-0.5227893417 0.8409849373 -0.1394117622
0.1106303224 -0.2637230133 0.9582333244
0.2518705791 0.9647329658 -0.0764952034
0.6520376247 -0.1637791303 -0.7402859802
-0.9241991781 0.3729085071 -0.0824325454
0.2357228867 -0.9082040153 -0.3458326001
-0.0054266332 0.2462434463 -0.9691928172
0.6012819967 -0.0155164263 0.7988862253
-0.2848143253 -0.9135307140 -0.2904176900
0.5917603791 0.6426475077 0.4866454917
-0.5847291526 0.4634883135 0.6657855521
-0.8327900327 -0.1874323003 0.5208933617
-0.3975018017 -0.6339010724 -0.6634468691
0.1340143507 0.9814780931 -0.1368974306
0.5730512319 -0.6083981732 0.5490573272
-0.4437729365 0.8953701195 -0.0371204791
0.6416919842 0.6776094341 -0.3592726712
-0.1162319596 0.1737383241 -0.9779085470
0.5539383702 -0.7666896540 0.3245600968
-0.2105934786 0.9772251462 -0.0261036460
-0.0222868080 0.3485450871 0.9370270116
0.8150081321 -0.5762693728 -0.0606247029
-0.1536608714 -0.9287790142 -0.3372801201
0.1163783324 0.9526693083 -0.2808509797
-0.5068863652 0.2506706694 0.8247608309
0.8794642487 -0.2887395448 0.3783809067
0.6625123305 -0.7287368641 -0.1732627914
-0.7642577462 0.5145825047 -0.3887350554
-0.9037358188 -0.2986329293 0.3067245398
0.8200085400 -0.2729953360 -0.5030502369
-0.2168442815 0.9700281374 0.1096538655
-0.9103738458 0.2891497579 -0.2959930378
0.5851751050 -0.8070147429 0.0793555365
-0.3749873681 -0.4701642259 0.7989556149
-0.6974167927 -0.6415560589 -0.3193988737
0.9540543774 -0.0960133845 0.2838338862
-0.9070409014 0.2731827500 0.3203872474
-0.6350800895 0.6935815954 -0.3400262497
-0.6261680229 -0.0797674918 -0.7755970309
0.0642194464 -0.6937361909 -0.7173604116
-0.3141332600 0.4489126034 -0.8365391620
0.9059095979 -0.3839676623 -0.1785962897
-0.2208960065 0.4756912942 0.8514239525
0.1471584583 0.9783613587 0.1454422223
0.4631464512 0.5843384032 0.6663662621
0.2973388028 0.7782705362 -0.5530683583
0.2595102204 0.9634388297 0.0666338271
-0.7828423309 0.1725498576 -0.5978163862
0.0081618921 0.5582541279 0.8296298646
-0.0964502948 0.9813076670 0.1665310884
0.1013941690 -0.8842528323 0.4558685678
0.2273252277 -0.9400660494 0.2541634585
-0.5575079182 -0.1329435159 0.8194577126
-0.5927058701 -0.7061697460 -0.3873293706
0.8918691738 0.1959991230 -0.4076195783
0.9827128508 0.0496081380 -0.1783661560
-0.1973424590 -0.0736477111 0.9775643040
0.7306676125 0.6698853196 -0.1318275337
-0.6899191888 0.6949053767 -0.2027758129
-0.5137249907 -0.5915991245 -0.6213671297
-0.0852662843 -0.5407392605 -0.8368576420
-0.7905392674 -0.5632877545 -0.2403218099
0.1474137161 0.8369501885 0.5270517795
-0.4326350953 0.3731210437 0.8207359874
-0.8172545198 0.5259471514 0.2355305581
0.2305632694 -0.3018476486 0.9250559853
0.4919889579 0.8088231377 0.3221055684
-0.8459953317 -0.4487240094 -0.2879907326
0.1943460658 0.8489323797 -0.4914706720
-0.4536728191 0.8859706117 0.0961095644
0.6998050363 0.0787013784 -0.7099852141
0.1865180893 0.2048771219 0.9608518966
-0.9319649424 0.3124853586 0.1838321158
0.9687793629 -0.2439093385 0.0444385043
0.0433792249 -0.0176393756 -0.9989029459
0.8800019240 0.4432549328 -0.1706507495
-0.2229568053 0.9297064303 -0.2931487959
0.1148577098 -0.9765257067 0.1822230794
-0.9136368245 -0.3528925512 -0.2018281454
-0.1215693966 -0.8813162725 -0.4566207503
0.8805041544 -0.4444925805 0.1647385201
0.2852902013 -0.0576172148 0.9567077702
-0.3516503740 -0.7723002727 0.5290503788
-0.4466949647 -0.8772145499 0.1759495438
-0.7181213968 -0.0175917129 -0.6956954729
-0.8904392011 -0.4002508411 0.2166040013
0.0717868215 -0.1211773074 0.9900316724
-0.9945690252 0.1037612865 0.0081270902
0.5487014941 0.8172996067 -0.1759205026
-0.5640647462 0.6794262379 -0.4692663948
0.2672224908 0.7018378926 -0.6603148589
0.5450557700 -0.2617598369 0.7964897961
-0.1293533014 -0.8154472997 0.5641927195
0.6467917315 0.7250031699 -0.2367083852
-0.3860497902 -0.8475832857 -0.3640990706
0.8888028832 -0.4535763316 -0.0655587232
0.3836844475 0.8846427568 0.2649404417
0.5118250906 -0.8345068784 0.2040425115
-0.8733079765 -0.4868313002 -0.0181235574
0.7417710749 -0.3085951194 -0.5954365833
0.6899392246 0.6650901681 0.2857252784
-0.4562478722 0.8604178559 0.2269779556
-0.9123968754 -0.0673960340 -0.4037198489
-0.2547434733 -0.5577016337 0.7899839559
-0.9004846845 -0.1914260980 0.3904912060
0.9314848792 0.3198291109 -0.1733356850
-0.0091691914 -0.7779808201 0.6282211151
-0.7216185347 -0.0420951746 0.6910099035
0.1789609084 -0.0546027666 -0.9823398247
0.1001639696 0.1048302914 0.9894330645
-0.3166202726 -0.7396298146 -0.5938849555
0.0924568794 0.9034322115 -0.4186430039
-0.1264292684 -0.8898554847 0.4383752462
-0.5362242695 -0.8400213690 0.0826294888
0.9669843078 0.2495680402 -0.0515474705
0.9340481920 0.1731628019 0.3123597589
-0.0928374596 0.9952161015 0.0304321764
-0.3403146942 0.9232534957 0.1782943961
-0.4100161407 0.5038856647 -0.7602539058
0.1660393759 0.7769913671 -0.6072193517
-0.6601201513 0.7313874292 0.1712127749
0.3556896968 -0.9310493662 0.0814365848
0.0599230079 0.4405669837 0.8957175704
0.8585602316 -0.1196758780 0.4985499101
-0.4504399372 -0.7757358602 0.4419702911
0.8235809548 -0.4848603625 0.2943209808
0.4950794431 0.7466943226 0.4442340977
0.3691238954 -0.8493989180 -0.3771856677
0.7660838304 0.3834251340 -0.5158495240
-0.4310480630 -0.9017143900 0.0332975420
0.7633237886 0.1784902543 -0.6208687647
-0.7215855531 -0.4818463132 -0.4971301842
0.8521038183 0.0172435089 0.5230886581
-0.1191156583 0.0300305511 0.9924261312
0.6684278367 -0.5131434131 0.5384125414
0.7907546078 0.2772577655 0.5457428714
-0.2279515434 -0.1934040938 0.9542708999
0.4667861878 -0.6915013923 0.5513043436
0.5470756009 -0.1377080801 -0.8256783706
0.2884233090 0.5007177544 0.8161456520
0.8118932988 0.5087597759 -0.2863437825
0.9070511166 -0.3074838223 -0.2875968895
0.5659155590 -0.6959402338 0.4420483809
-0.1868618292 0.1465923711 0.9713873242
-0.5911120774 -0.3850973455 0.7087217694
0.2636987039 -0.9645340745 -0.0117052388
-0.5574956778 -0.7992248049 0.2245846843
0.1873337881 0.3054441323 -0.9336005216
-0.3037008684 0.3734929883 0.8765094239
0.0272803364 0.9959151776 0.0860740506
-0.0064580274 -0.5814257831 0.8135738151
0.3355909009 -0.2157440629 -0.9169695996
-0.6551776533 0.7546051263 0.0362401168
-0.2506664329 -0.3222094497 0.9128786392
0.8664304999 0.4972675385 -0.0449798169
0.4202521997 0.7600082364 -0.4957575710
0.4613610911 0.8822164028 -0.0940221370
0.5188355679 -0.1241877923 0.8458055602
-0.5198181287 0.4290275418 -0.7387316708
-0.5097408720 0.5761541525 0.6389136374
0.8213698512 -0.4031119051 0.4035496988
-0.7680065493 -0.2942703446 0.5688329319
0.7526947983 0.6541460193 0.0744548599
0.7490069426 -0.5106476195 0.4221701181
-0.6845894049 -0.5046393549 0.5260004450
0.4897445985 0.1313841548 -0.8619097587
-0.1303031155 -0.6281183276 0.7671300181
-0.0955130736 0.0358969800 -0.9947807093
0.3656790564 0.9306586806 -0.0123793351
0.3902695502 -0.6928475852 -0.6063430563
0.3035413276 -0.9427760634 -0.1379708546
-0.1589222359 0.6284580225 -0.7614356420
-0.7687257191 0.0696646652 0.6357732326
0.4930270881 -0.6092468747 -0.6210817467
0.1397932473 0.4173131678 -0.8979463058
-0.0067006738 -0.3526308582 -0.9357385206
0.2707533076 0.2996826795 0.9148130618
0.9976132841 -0.0255872496 -0.0641328929
0.1182346136 -0.5137985929 0.8497244154
-0.4365907028 0.0858339578 -0.8955563019
-0.2027624852 -0.0403330875 -0.9783969627
-0.9404235516 -0.0779323737 0.3309533029
-0.7110139437 0.5273546695 0.4651410800
-0.7307620626 0.5939265758 0.3365085888
0.4685773298 -0.8373626311 -0.2815299451
-0.1058668648 0.9880381986 -0.1121281634
-0.1111526305 0.3190351234 -0.9412022539
0.0443235604 0.2327661271 0.9715221830
-0.9876863985 0.0742329802 0.1377136262
-0.4264524292 -0.0594923924 -0.9025513730
0.6963089472 0.3182409763 0.6433323644
0.2607236069 -0.4364179134 -0.8611402939
0.6408121352 0.4424220091 0.6273934756
0.1271492194 0.6951156788 -0.7075643215
0.7361793835 0.6235791713 -0.2630378917
-0.1983345736 -0.9773966750 -0.0732061243
0.5996280933 0.1060524419 -0.7932206688
0.0139689849 0.1124287676 -0.9935615933
0.5770928271 -0.3983703372 -0.7129270252
-0.8413270695 -0.4052675343 0.3576688241
0.7400373442 0.1917164298 0.6446623456
0.7998006897 -0.0806435625 -0.5948239004
0.5646140450 0.8249394925 -0.0261880474
-0.8869379600 0.0662265173 -0.4571160723
0.6236284437 -0.0285915970 -0.7811978525
-0.3275380777 -0.0905900224 0.9404851171
0.4026541015 0.0216686089 -0.9150957032
-0.7452807671 0.6343474741 0.2053286642
0.5180132970 -0.0029268631 -0.8553675570
-0.5355841402 -0.8427845106 -0.0535153942
-0.8572025047 -0.4995874106 0.1249651354
0.4061793637 -0.0928988806 0.9090589214
-0.1860654202 0.5112843889 -0.8390279692
0.6676689963 0.2102891081 -0.7141404641
-0.1326100956 -0.5187254526 0.8445936700
-0.1326274019 -0.3994546066 0.9071085875
-0.2233163569 0.8422063820 0.4907323251
0.2358240015 -0.3122521330 -0.9202639001
0.8151986244 0.2570682575 -0.5190058900
0.9563974835 -0.0177792870 -0.2915265862
-0.3930249567 0.5855602312 0.7089785603
0.1480678685 0.9012637148 0.4071849982
-0.2260276542 0.2456866417 -0.9426290753
-0.7771214940 -0.2337852428 -0.5843172458
0.4676972888 -0.5986039811 0.6503326224
0.8910756147 -0.2262973732 -0.3934129481
-0.7394068414 -0.5985459585 0.3082535620
-0.5153057535 0.0029918727 0.8570011838
-0.5927357309 0.5816540853 -0.5570842650
0.1065328596 -0.9410885000 0.3209410927
0.0310970844 0.7255606923 0.6874552008
0.0252253110 0.7599979361 -0.6494357711
0.7220534505 -0.6640000156 0.1942750470
0.0724571411 -0.1470577674 -0.9864704637
-0.9616406040 -0.2733323449 0.0231684691
0.5301663819 0.2468319011 0.8111705247
0.4432281468 0.4913356855 -0.7497586639
0.7001847093 -0.0403246384 0.7128220650
0.9482876430 0.1260698718 -0.2913021346
0.3857414226 -0.7793066289 -0.4938468720
0.6577915235 -0.2906166676 -0.6948757185
-0.5543386630 0.8322910375 -0.0005250135
0.8505514455 -0.1514324090 -0.5036173786
0.7230995177 0.3052676189 -0.6196279273
-0.3548953770 -0.8001335083 -0.4835655491
0.8288175432 0.1488727268 0.5393499710
0.6866694624 -0.7231445348 0.0744783943
0.0645727824 0.8371068539 -0.5432149399
-0.6527377968 0.6940824532 0.3036163974
-0.3714543569 -0.3501896699 0.8598772330
0.2688843741 0.9023297446 0.3369009133
0.3803614446 -0.4690420396 -0.7970726043
-0.3516677838 -0.4472360620 -0.8223804926
-0.2474415726 0.2624747035 0.9326734145
0.1152194950 -0.7241169453 0.6799846450
0.7518352070 -0.4054536567 0.5199530304
-0.0649858913 -0.6505985539 -0.7566362109
0.0348472554 -0.9984430565 -0.0435560766
-0.9430291920 -0.2894235413 0.1641034940
0.1397830016 0.5259349977 0.8389595286
-0.2142579346 0.7658434235 0.6062816079
-0.6657567799 -0.5984868691 -0.4456247048
-0.5801880808 -0.2632519906 0.7707659699
0.6833144327 -0.6683762760 -0.2938614294
-0.0177366262 0.6707250953 -0.7414939370
-0.3343258693 0.1675764511 -0.9274396725
-0.8231202795 0.5581634582 0.1045301842
-0.9069214408 -0.1993828082 -0.3711333938
0.2074816827 -0.1845273595 -0.9606773678
-0.4685443423 -0.6906534651 0.5508756578
-0.2502224001 -0.6619684851 0.7065312981
-0.4464174005 -0.1123472568 0.8877441064
-0.2556182329 -0.4441800671 0.8586986590
0.5351621166 0.7259166411 -0.4320260861
-0.1274601014 -0.2687050593 0.9547520692
0.5592984316 0.4636144192 -0.6872022517
-0.7062816153 0.2632487895 -0.6571653938
0.3950501697 0.6882953027 -0.6084282535
0.4452515171 0.8623414235 -0.2410774894
-0.9808392074 -0.1178406432 -0.1551387509
0.1476478264 0.9485072187 0.2802394967
-0.6934575177 0.5007814401 -0.5180102512
-0.4564704646 0.1376902993 0.8790199636
0.0257705599 0.9748619306 0.2213144699
-0.6324266633 -0.7638921396 0.1284730113
-0.0105840929 -0.9238242876 0.3826704361
0.0185390312 0.9983012821 -0.0552345406
0.1565687406 -0.0206895662 0.9874503387
-0.5039144056 0.5493434782 -0.6665523346
0.3569449816 -0.5759232781 0.7354608472
-0.4872184331 -0.4871541847 0.7247751367
0.3220589263 0.2851224215 -0.9027642288
-0.9372697074 0.3449967635 0.0500272809
0.3517434087 0.9223995813 -0.1595480706
-0.0122339796 -0.2203817004 0.9753369858
0.5563919535 -0.8136129021 -0.1687069637
0.9437749687 -0.1626695704 -0.2877975317
0.5901818235 0.7694616630 0.2441601203
-0.2185423119 -0.4991717629 -0.8384907925
-0.9296459217 0.1496122668 0.3367114937
-0.3428785366 0.8879705676 0.3065005388
-0.8224405641 -0.5031561848 0.2653777915
-0.5319417918 0.2926504364 -0.7946028267
-0.4818327320 -0.5941049999 0.6441090494
0.3712287150 0.0445600602 0.9274716396
0.3214091779 -0.1985428555 0.9258924748
0.5726524042 0.5612809022 0.5975223618
-0.4261886761 0.6764928763 0.6006002004
-0.8002157340 0.0473558635 -0.5978396117
0.1854828035 0.5218596163 -0.8326215650
-0.6301755481 0.7696669267 -0.1024285139
-0.2503145526 -0.3784718396 -0.8911238362
0.9793166491 -0.0948150239 -0.1787428657
-0.8091780384 -0.4139136138 -0.4170208897
-0.4786540931 -0.7602064790 -0.4392907562
-0.7820068028 0.4100432219 -0.4693931364
0.2385075928 -0.6551871986 0.7168290333
0.7025189748 0.5052992903 -0.5011384212
0.6633485127 -0.6087219112 0.4352314162
-0.4076684462 -0.1958444228 -0.8918808217
-0.2154099437 -0.9740414028 0.0695837746
0.8391034552 -0.5137208509 -0.1788750368
-0.7110351598 0.1177731294 -0.6932232623
0.4780665122 0.3709884403 0.7961281223
-0.9729323885 0.2141577063 0.0868276692
-0.4454186257 0.7480905226 -0.4918971620
0.2707590349 0.4082739799 -0.8717808798
0.1170489413 -0.3938258654 0.9117021077
-0.3353979944 -0.9048166436 0.2623261838
-0.3064891639 -0.1187981713 -0.9444317799
0.8737964519 0.3880172335 -0.2931252072
0.9249939077 0.3769237081 -0.0481122547
0.3401014794 -0.8346265213 0.4332776865
-0.8333645687 0.2800848555 0.4765039028
0.2340637335 -0.7493066457 0.6194785866
-0.8087705797 -0.0606529239 0.5849883522
0.6767275791 0.0914793112 0.7305281098
-0.8676185123 -0.4722820307 -0.1555242766
0.1641906805 -0.9816041150 -0.0974411716
-0.1282358616 -0.7273914052 0.6741344877
0.4746674698 -0.3730542309 -0.7971959195
-0.6385812431 -0.7695495215 -0.0027440793
-0.7266421347 0.6839316808 -0.0650281786
-0.2582982108 0.6788502442 -0.6873458956
0.9075978530 0.3679167536 0.2022458890
0.3265594861 0.1766588622 0.9285206236
0.9663648815 0.1888888731 -0.1745276750
0.5121126979 0.3668560686 -0.7766319653
-0.7571572399 -0.3604102737 -0.5448094610
-0.3442633618 0.8951820114 -0.2830757922
-0.6175634578 -0.7418008200 -0.2614324371
0.0980099967 0.6443390574 0.7584333983
0.4746773907 0.8785358813 0.0534423051
0.4828405610 0.5817584521 -0.6545396061
0.7776348216 -0.6252831171 0.0656133200
0.7483451278 -0.1888859557 -0.6358472029
-0.7813738870 0.6020723388 -0.1642064179
-0.8562788635 0.2989750506 -0.4211893007
-0.2203528183 -0.8147352890 -0.5363310959
0.1180694017 -0.6242417621 0.7722576246
0.2418124784 0.0793100090 0.9670763402
-0.0934069309 -0.9955563858 0.0119426938
-0.6224780314 -0.5407097116 -0.5658216223
-0.3515793227 0.4830343198 0.8019163459
