0.8730775837 0.4491741871 -0.1896788928
-0.8836326718 -0.0783849978 -0.4615724141
-0.1808634278 -0.9794748006 -0.0889805343
0.5843406540 0.6614815495 0.4700937776
0.4712754454 -0.7389390190 -0.4815273416
-0.9945426709 0.0353947155 0.0981432107
0.2632946777 -0.9415963974 -0.2099336493
0.5505430913 -0.2695199033 -0.7901020987
-0.4088042255 -0.2020944931 0.8899645617
0.6690440556 0.5580046829 0.4909285340
0.3769064664 -0.0046929386 0.9262394355
0.7411149403 0.4516825273 0.4967207865
-0.2865609604 0.6078206963 0.7405652011
0.3018958845 0.7498940464 -0.5886576204
-0.8736374669 -0.2735959344 0.4023715212
0.2944776147 -0.4702605194 -0.8319483027
-0.8273764665 0.3810504678 -0.4126120741
-0.4344833374 -0.8505455709 -0.2963046765
0.5263631446 -0.6476590612 -0.5508898079
0.1335046879 -0.2745367025 -0.9522636701
-0.5216962726 0.1269922895 -0.8436266696
0.1736391349 -0.1147496618 0.9781012044
0.6241190124 -0.3988440189 0.6718622679
0.8619825424 0.4789868525 0.1660050954
0.2691614987 -0.9281105026 0.2572216604
0.2459004284 0.9170751119 -0.3138570031
0.1967663325 0.3437330934 0.9182214171
-0.1028281345 0.8634232239 0.4938893714
0.4151255817 -0.6739304682 0.6111370349
-0.9848503869 0.1573704525 -0.0728303238
0.3632077341 0.9316590078 -0.0095726222
0.6945473551 -0.6038208271 -0.3911577434
0.7371738115 0.4347972280 -0.5172292936
0.5908965740 -0.5157400587 0.6203655622
0.3414999186 -0.2223866491 0.9131932894
0.0451740991 0.2976528104 -0.9536047951
0.0792499750 0.9245396868 0.3727543548
-0.4621676597 0.0239199067 -0.8864699049
-0.9747211032 0.1150768188 0.1915100435
0.9350899025 -0.3476071921 0.0691094370
0.5392108198 0.7458414487 0.3911166389
0.4467255578 -0.4048745601 0.7978175647
-0.8525048666 0.2077816682 0.4796480279
0.0061389564 -0.6030592434 -0.7976727789
-0.1679591966 0.5969977923 -0.7844637304
0.2186995056 -0.8186279783 -0.5310543846
-0.2273448827 0.8390882954 0.4942116316
0.1103648629 0.8399976410 -0.5312471742
-0.2082542198 0.2740209935 -0.9389050405
-0.0948709624 0.5041953381 -0.8583627214
0.4649946812 0.5679760607 -0.6791046612
-0.1127899341 0.2349253854 0.9654473026
-0.3307733980 0.2541126584 -0.9088540675
0.1184090004 0.9413010450 -0.3161196788
0.3178724485 -0.9380497932 0.1379118991
-0.7912616644 -0.4145941999 -0.4494625990
0.0233035968 -0.7365270465 0.6760065475
-0.1453876365 0.9885498700 0.0403929412
0.0592376342 0.9873427451 0.1471230994
0.3092545447 0.2998197446 -0.9024797767
0.3244099685 -0.4428268554 0.8358603642
-0.3821029098 0.8819788228 -0.2758817183
-0.4686712364 -0.5828086616 -0.6638383358
-0.8343890261 -0.3959126248 0.3834685733
-0.7340661239 -0.0852920469 -0.6737003729
-0.5964992036 -0.7030831238 -0.3871211969
-0.5223040500 0.4984810437 -0.6918924255
-0.6134124453 -0.4315027518 0.6614609188
-0.7152735759 -0.6803884292 -0.1595471626
-0.6537634830 0.1599251685 0.7396061444
0.8029253999 0.0999294200 -0.5876435256
-0.7074082989 -0.3007250005 -0.6396389394
0.3772649591 0.8652471999 -0.3301793962
0.1396595355 -0.9677150426 -0.2098161349
-0.0431656856 -0.6949059765 -0.7178038781
-0.7642116218 0.6024958715 0.2301723746
0.8372943044 -0.5428232944 -0.0654302593
0.8185566648 -0.5375009496 -0.2026270358
-0.7206250837 -0.4114927190 -0.5580082714
0.1164080845 -0.0404207495 -0.9923786177
-0.4891357289 -0.7798441623 -0.3906268311
-0.7678049186 -0.1945486793 -0.6104313380
0.8567474154 -0.1361099571 0.4974514507
0.1541314984 0.9837927346 -0.0916260692
-0.8003526409 0.1464668112 0.5813631597
-0.8792234321 0.1555158149 -0.4503121004
-0.3982502673 0.3997304492 0.8255981423
-0.1003754460 -0.9009074192 -0.4222447061
-0.6604020451 0.7458933291 -0.0866734122
-0.4867621009 0.6240478083 0.6112503498
0.1614542895 0.5065734463 -0.8469450135
0.4675221925 -0.8205200377 0.3288918778
0.4884221045 0.8721926412 -0.0269043571
0.4200089942 0.4857521980 -0.7665750106
-0.3230122106 -0.1841889537 -0.9282981962
-0.8490614618 -0.4098790703 -0.3333073384
-0.5918513174 0.5526066083 -0.5868031651
-0.9042768451 -0.2995234852 -0.3042516544
0.1381575822 0.2360338883 0.9618734252
-0.5745019433 0.0973872627 0.8126888939
0.2025899629 -0.4542345422 0.8675415192
0.7041268582 0.7078590305 -0.0560442720
-0.4127726196 -0.3933038541 -0.8215417475
-0.4167759276 -0.8992722417 0.1326923567
0.6079713956 -0.4353442034 -0.6639625040
0.7961305657 -0.2290432964 0.5601029287
-0.1687412321 -0.6906981804 -0.7031802188
-0.5215567444 0.3502933106 0.7779930327
-0.0070907271 0.9487681108 -0.3158936427
0.6381011897 -0.5801241439 -0.5062438634
0.2142147022 0.7998906962 0.5606129998
-0.0100831136 -0.0518790533 -0.9986024708
0.3820705667 0.8991471362 0.2134397093
0.4638611459 -0.2430636599 0.8519113185
-0.2953861261 0.1132970308 0.9486362945
0.3340289884 -0.8872429803 -0.3181580250
0.3957879393 0.8175197798 0.4183459296
0.1458534561 -0.9536998741 0.2630272218
0.9203543046 -0.3319972066 0.2067022227
0.0755801809 -0.9862031938 0.1472782973
0.6925558268 -0.4402390549 0.5714507865
0.5120827737 0.2039031522 0.8343828482
0.7370920200 -0.5011776518 -0.4533390733
-0.2670604751 0.4328710419 0.8609885968
-0.2351057402 -0.3338522823 0.9128351135
0.7927618615 0.5859203736 0.1680057938
0.6041112013 0.7957762057 -0.0423070561
0.7052594119 -0.3535609524 -0.6144947639
0.3335161304 0.9166566239 -0.2202444655
-0.6093983860 0.7825552119 0.1274399760
0.9159062305 -0.3430366910 -0.2084264992
-0.7299707357 0.1396302713 -0.6690636086
0.3128310254 0.9431044698 0.1126530457
-0.2843908374 -0.8187716314 -0.4987332626
0.9259908236 0.0278234862 -0.3765193864
-0.3362310076 -0.8194078688 0.4642407286
0.2117030827 0.5972535922 -0.7736083966
0.7666015982 -0.6284749178 -0.1316862459
-0.1620943487 -0.7963398502 0.5827248623
0.8386598062 -0.2961678466 -0.4570933560
-0.3754962167 0.8845623045 0.2766805390
0.3904888506 -0.8865879742 0.2479520548
0.7774683044 -0.6288805506 0.0072310982
-0.1045711341 -0.7292107772 0.6762518173
0.2570241695 0.6787713001 -0.6879012273
-0.0427428321 -0.9472378094 -0.3176689828
0.6659270919 0.6929537019 -0.2763263929
-0.2040089777 0.8875925463 -0.4129888725
0.2393727471 0.8213334153 -0.5177954315
0.8719508308 0.0649358470 -0.4852680542
0.5662813091 -0.2319257922 0.7909082791
0.9683528866 -0.2495637355 -0.0032601900
-0.7209554758 0.5865467388 -0.3690340433
-0.9191848570 0.3135853799 0.2382507254
0.5803164441 -0.7747735478 -0.2509158710
-0.9420644331 -0.2801978972 0.1844010366
0.6548589411 0.4666981787 0.5944346704
0.8431605562 -0.1669072854 -0.5110990458
-0.7051320347 -0.1905839884 0.6829835701
0.8686292810 0.3112745341 0.3854754683
-0.2188766368 0.4916250006 -0.8428510406
0.1127014333 0.1905117221 -0.9751941708
0.7926688610 0.3198792006 -0.5189926530
-0.9929674037 -0.0507208232 -0.1069725822
-0.6927024590 0.4668091501 -0.5497749727
0.9586783458 -0.2459598483 -0.1429670675
-0.3608611506 -0.3169998608 0.8770919668
-0.9284998348 0.1664229445 -0.3319509909
0.3850293759 -0.8995780048 -0.2061838816
-0.9642334113 0.2648337488 0.0108173039
0.3503357425 0.6183936892 0.7034586788
0.1561995141 -0.8634718406 0.4796020144
0.0950582149 -0.2345872834 0.9674361696
-0.6185646117 0.7571633328 -0.2099559682
0.2151919276 -0.9032926505 0.3711533671
-0.8029750207 -0.3318641528 0.4950730251
0.0305642439 -0.7739371630 -0.6325243827
0.0482764698 -0.1185535077 0.9917733855
-0.0803332308 0.9018622582 -0.4244891509
-0.6148128356 -0.7690969997 -0.1746281257
-0.4310877392 -0.5788740118 0.6921475562
0.7777373124 -0.1283668474 -0.6153426895
0.0123178726 0.2370791504 0.9714122433
0.4820175540 0.7988741909 -0.3598042589
-0.5313469924 -0.6922061546 0.4883861313
0.0846554234 -0.6526069281 0.7529526258
-0.5517490297 0.8244236106 -0.1260901207
-0.2706716611 0.1511369531 -0.9507336500
-0.0957360577 0.7248068183 0.6822680437
-0.6188834368 0.4438458430 -0.6480618484
-0.3092544401 0.9364837690 0.1654081064
-0.0369123763 -0.9249096144 0.3783909111
-0.7558052141 -0.4505246681 0.4751694454
-0.8027438066 0.0084786017 0.5962637792
0.3006988352 -0.1369494835 -0.9438352873
-0.4952120098 -0.2937098882 -0.8176182281
0.5021456801 0.4056937126 0.7637161302
-0.2244112957 0.7009842753 0.6769494931
0.6424388726 -0.6949408123 -0.3230008707
0.1071566582 0.9938930503 0.0263449282
0.2655225440 -0.9637991608 0.0242684202
-0.2957661708 -0.6772291290 -0.6737084526
-0.4827344194 0.6072439420 -0.6310485522
-0.9086363088 0.3837684542 -0.1646263403
0.7328297226 0.6580733020 -0.1729165316
-0.4106891566 -0.8418078382 0.3502770049
0.6479756774 0.4528159470 -0.6124420296
-0.7798639246 -0.5149398864 -0.3558780303
-0.0948732665 -0.8693073461 0.4850812316
0.5441026277 -0.3464637266 0.7641434529
-0.7696256349 0.5876098389 -0.2497820237
-0.3625683356 0.2030243091 0.9095742586
0.8832217317 0.0926257339 0.4597171370
0.9066510430 -0.1734074754 0.3845955456
-0.0159029847 0.8461640114 -0.5326852362
-0.3199060525 0.7414959151 -0.5897829477
-0.6098621414 0.7493224246 0.2580388973
-0.0377550638 -0.3983963151 -0.9164359941
0.4939771905 -0.0300129274 -0.8689567074
0.4222662648 -0.1226957977 0.8981296915
0.0512841461 0.7752055703 -0.6296239037
-0.1577481844 -0.2337795898 0.9594074284
0.5129542715 -0.8323193613 0.2100533175
0.7892887940 0.6108660123 -0.0621764796
0.7700635834 -0.6210580629 0.1459073677
-0.2897382551 -0.3983221385 -0.8702822631
-0.5672350763 0.7549219201 -0.3291462635
-0.4312394838 0.8881454918 -0.1588398346
0.8580665259 -0.4359600571 -0.2714049849
-0.3573679477 -0.6756405808 0.6448239725
0.1478075231 0.8694250049 0.4714372673
-0.8737868791 0.3884732469 -0.2925491863
-0.4212985531 0.7163832275 0.5561498004
-0.2901987691 0.7564043829 0.5862056669
-0.3904452377 0.9191605137 0.0519275107
-0.6619555282 0.5746041194 -0.4812951118
0.5083071824 -0.8430427719 -0.1757916185
0.2031446731 0.9126941190 0.3545725412
-0.6763573415 -0.1934106365 -0.7107271434
0.4806381666 -0.7142693452 0.5087300417
0.1056368149 0.4072605672 -0.9071822825
0.5657212767 0.7818748909 -0.2619753653
-0.3009252907 -0.6102265301 0.7328489281
0.3316960808 -0.3565317005 -0.8734202061
-0.3362741596 -0.7410632932 -0.5811582272
0.6651318109 0.6391376610 0.3861382194
0.9990736747 -0.0424667099 -0.0069549304
0.8988185039 0.1636232497 -0.4066358681
-0.2033449571 -0.5023974020 -0.8403854347
-0.1179432331 -0.2899948828 -0.9497327844
-0.3718214682 -0.2912389404 -0.8814355764
-0.0778935157 -0.1203683794 0.9896686584
-0.8367729060 -0.2038743348 0.5081794559
0.8869140302 -0.4400796225 0.1404045189
0.4133483797 -0.7968100981 0.4407230248
-0.7059868533 0.5175188261 0.4834840511
-0.9252302252 -0.3712594609 -0.0782012988
-0.1975528419 0.7643715520 -0.6137662464
0.4466134448 0.1058926083 0.8884386228
0.2514995492 0.0036357949 0.9678505865
0.8836002059 -0.4476408214 -0.1373621899
-0.9543356618 0.2735094660 -0.1201499760
-0.2456532897 -0.2922345328 -0.9242583184
-0.3453551805 0.5077407571 0.7892585906
0.5655119459 0.0889856205 0.8199254834
0.2105136559 -0.3780599183 -0.9015290893
-0.5200208702 -0.0843346993 -0.8499799721
-0.7551444033 0.4825863045 -0.4436974068
0.4591995485 0.7435312288 0.4861039873
-0.8280620462 0.3371017622 0.4479683577
0.5035454865 0.1803431788 -0.8449368502
-0.0200890617 0.9991917533 0.0348176628
-0.6276962955 -0.6620232521 0.4095394662
0.3683066573 0.3959222225 -0.8411871373
-0.8704465980 -0.4802126821 -0.1082520206
0.5281957601 -0.8457546556 0.0755533023
-0.0226235233 0.4030585970 -0.9148944986
0.0309521004 0.7345962191 0.6777981723
-0.7166280266 -0.3831106567 0.5828125738
-0.2410448993 -0.9702070556 0.0244054464
0.7023968310 -0.7093314835 -0.0590553828
-0.0164282730 0.1802674780 -0.9834804260
-0.2857715960 -0.7698171532 0.5707154681
0.9782896556 0.2038006723 0.0376116441
-0.8303081926 0.2632602166 -0.4912050119
0.3074074344 0.0916370875 -0.9471553798
0.4329551383 -0.8918833724 0.1307436358
-0.0474948729 -0.4571313746 0.8881301388
-0.6977366700 -0.5603599231 0.4462737904
-0.3455363458 -0.9046969752 0.2492549232
-0.1183716423 -0.6037255139 -0.7883550330
-0.4077829607 0.5503813827 -0.7285556880
0.3150849920 -0.9445945769 -0.0919920279
-0.4249813546 0.8893465970 0.1686815894
0.8132293328 0.5094080561 0.2813565082
0.7209849128 -0.3197086398 0.6147903228
0.6331351082 -0.3140792889 -0.7074561012
0.0055364603 0.9635551931 0.2674523089
-0.9086004962 0.1332403560 0.3958435876
0.9443471197 0.3260168752 0.0438350832
0.3258041659 0.8856135938 0.3309685907
0.1981997553 -0.9695453539 0.1438703014
-0.7680663608 0.3670183487 -0.5247586084
-0.8932452168 -0.3978889441 -0.2092782141
0.2890039538 0.8617669476 -0.4169345785
0.7811366749 -0.2612984583 -0.5670525645
-0.3043235303 -0.4281337211 0.8509340196
0.7121315611 -0.0554874292 0.6998498303
0.2523462984 0.4438581240 0.8598321414
-0.0487559035 -0.9878344819 0.1476682034
0.9656432227 -0.0085745455 -0.2597299437
0.8371232510 0.1972417152 -0.5102160017
-0.4621357791 -0.8524990092 0.2442866372
-0.6388556350 -0.7528452640 0.1583902968
0.1992648397 0.1195728758 0.9726231804
0.0143922455 -0.9783735490 -0.2063445223
-0.2657377892 -0.0729092281 -0.9612843866
-0.4627306903 0.1512810826 0.8734954735
-0.0497825365 0.1182778768 0.9917318402
-0.4848533896 0.0336067850 0.8739495263
0.7273760631 -0.1878141794 0.6600377995
-0.1209426088 0.9539092280 0.2746453535
0.5410821900 0.4703159042 -0.6971606801
-0.3276153690 -0.4984261703 -0.8026453281
-0.0533931904 -0.9947076183 -0.0877833778
-0.1107303276 -0.5521508513 0.8263584162
-0.8861763299 0.4598041841 0.0571981173
0.0837427023 -0.9426510073 -0.3231040671
-0.7667699452 0.6349099720 0.0946212373
-0.6944491050 0.3484468436 -0.6295436742
0.7171713659 0.1287049668 -0.6849089454
0.0256036385 0.9960328879 -0.0852228840
0.6533745793 -0.5527992150 0.5172182199
-0.7231940295 -0.6626734068 0.1945619482
0.4972281458 0.8476824434 0.1849287599
0.0720131577 -0.9933376666 -0.0899688013
-0.5533083739 0.6506375650 -0.5201159509
0.9717213800 0.0225794707 0.2350483507
0.9835662146 0.1163803333 0.1380330377
-0.4076073017 -0.7307863469 0.5475468955
0.2365983848 0.9715456022 0.0109702843
0.8935526165 -0.4489558873 0.0015273788
-0.5905488765 0.8069922217 -0.0039469739
0.6782298617 0.2719314912 0.6826840549
-0.9006623092 -0.1915263608 -0.3900321242
0.0743316699 0.1200571394 0.9899803463
0.2199562385 -0.7916798608 0.5699668860
-0.5558552871 -0.8277360909 -0.0766672263
0.4953116885 -0.5014779894 -0.7093561569
0.3659779100 -0.0156319960 -0.9304922407
-0.5825587622 0.0205612364 -0.8125284759
-0.5843129328 0.7154237337 0.3830760731
0.2717827167 0.8515959157 0.4482393906
-0.8319427877 0.5355497449 0.1451126072
-0.5063941763 0.7386941834 -0.4448548546
-0.1338204746 0.4507315828 0.8825718786
-0.3505072485 0.9343385273 -0.0644684820
0.7493120700 -0.4747831607 0.4616409557
0.7842292311 -0.5236899907 -0.3327661441
0.6803254968 -0.7068981313 -0.1935258393
-0.9449285306 -0.1830913591 -0.2712703931
-0.2689523841 0.9620617120 0.0458462357
0.8008872399 0.3391199688 0.4935354859
0.9721063848 -0.1218841302 -0.2003832213
0.1715562239 -0.4900817649 -0.8546275948
0.9788974444 0.0888587676 -0.1840215006
-0.3057637751 0.9347071434 -0.1811934597
0.6444321669 0.7073881950 0.2903603344
0.9860149776 0.1462581952 -0.0798937059
-0.2472014190 0.9284129993 0.2773819769
-0.2862801153 -0.8859506316 0.3648769299
-0.1890470616 0.9686504144 0.1611756281
0.2810075495 -0.7370531718 -0.6146441077
0.8618870352 0.2906961413 -0.4155075113
0.6253243198 -0.7802433744 0.0137757680
-0.5045518947 0.8277312926 -0.2455367445
-0.6637534732 -0.4954252536 0.5603437739
-0.5005420791 0.3294620324 -0.8005700446
0.0575310387 -0.1644599429 -0.9847045784
0.0318827934 0.5089207133 -0.8602227590
0.3387606097 0.5822945864 -0.7390360369
0.0891520680 -0.9219128423 0.3769994959
0.8149190771 0.4274620281 0.3913861422
0.8738313139 0.3979253814 0.2794176545
0.9168283976 0.2553524960 -0.3069540553
0.6444529864 -0.1443034512 0.7509040300
0.5774867469 0.5535306918 -0.6000940180
0.4061034757 -0.8190421298 -0.4052776291
0.0033995366 0.6959586230 -0.7180738389
0.9361975417 -0.2240188847 -0.2708315016
-0.6604744927 -0.6983159511 -0.2759135316
0.4491956648 0.3162630042 0.8355842070
0.9542999960 0.1526672696 0.2569128694
-0.9773384233 -0.0227414491 0.2104576747
-0.1129383935 -0.9728137961 -0.2021836723
0.8517304610 -0.2669608759 0.4508737212
-0.8945213474 -0.4463597640 0.0243827837
0.0871817088 -0.3913457649 -0.9161047113
0.1754959119 0.3026483285 -0.9368058359
-0.7538826646 -0.6044027474 -0.2576009450
-0.9912201083 -0.1308740394 -0.0188330227
-0.3956962544 -0.0796687605 -0.9149193204
-0.1756625182 -0.4453009318 0.8779805008
0.6188368062 0.1590883846 -0.7692411151
0.4721003605 -0.5768028155 0.6666481543
-0.1475393146 0.3932887028 -0.9074999432
-0.0676154166 -0.1735781107 -0.9824962061
0.6094576730 -0.0273044758 0.7923482885
0.7815800750 -0.3571546017 0.5114422518
0.3824711257 -0.3293911840 0.8632596863
0.9224009710 0.3349533132 -0.1923089354
-0.9349969697 -0.0705514153 -0.3475674962
0.3337074938 -0.6454941302 -0.6870055578
0.4606925306 -0.8376935882 -0.2933118554
0.5042598061 0.7284487644 -0.4637719760
-0.3885417626 0.7868655022 -0.4794559211
-0.0363946552 -0.8092357967 0.5863555699
0.1321923135 0.9582786666 0.2534308374
0.1550281806 -0.7613026331 -0.6295907910
0.6496111671 -0.2775324804 0.7078001511
0.7378936126 -0.6207022712 -0.2650315208
0.6645918135 0.7447793060 0.0601789558
-0.8141307143 0.1434976923 -0.5626718337
-0.3281156659 0.8591913703 -0.3925943186
0.7694647926 0.0345203511 0.6377556572
0.7488796362 0.5947888009 -0.2922423187
-0.6750433818 0.6777577815 -0.2914803980
0.8490153433 0.2198020883 0.4804789161
0.9865055121 -0.1450716548 -0.0759018413
-0.6340434593 -0.0864838276 -0.7684461200
0.9587782101 0.2739167763 -0.0755906306
-0.3179419139 0.3222998096 0.8916477848
0.7603099998 0.2246974173 -0.6094585916
-0.6861183321 0.7261231610 0.0445734157
-0.9605798454 0.2353805667 0.1479268381
-0.5928760746 0.4102644610 0.6929509594
-0.6279705186 0.2875059329 0.7231828029
0.1551429045 0.7313146645 0.6641607792
-0.7435855141 0.5624536750 0.3615611243
0.2413719909 -0.0267721052 -0.9700633054
-0.1065201539 -0.3469688860 0.9318079464
0.0214098627 -0.9638900487 0.2654384898
0.2781969176 -0.8605936628 -0.4265970260
0.9094786496 0.1872989483 0.3711707018
-0.5334095000 -0.8352739811 0.1333854632
0.6090187141 0.3651402520 -0.7041085159
-0.0325462342 -0.8460913197 -0.5320434393
0.9924070395 -0.0125191750 -0.1223582368
-0.6827606218 0.6608082853 0.3117215798
-0.2171966557 -0.8509874197 0.4781694515
-0.8264511715 0.5629327213 0.0092310646
0.0126113477 -0.9994828858 0.0295789610
0.6395390136 0.7517190236 -0.1609607395
-0.4340320848 -0.8965315925 -0.0885847221
0.7673591317 -0.3877633987 -0.5106853332
-0.1321882541 0.9415243845 -0.3099324101
-0.4194250467 0.5707134045 0.7059524347
0.5336987638 -0.1214102425 0.8369140831
-0.3401076039 0.4705450287 -0.8141954273
-0.1217511174 0.6918630365 -0.7116896825
-0.4042968445 0.8319630241 0.3799757729
0.8125992606 0.4090126302 -0.4152000842
-0.0827524299 0.2880389627 -0.9540364727
0.1789928181 0.5506272427 0.8153350297
-0.9870366673 0.1510075298 0.0543630697
-0.1678699639 0.9062517842 0.3879785805
-0.7234401012 0.2203293760 0.6542854011
0.2189910512 -0.2292344754 0.9484168254
0.6110464995 -0.7825682748 -0.1192018069
-0.1713334551 -0.9352581474 -0.3097370578
0.5827414280 0.5671979250 0.5819784721
-0.6429244703 -0.5103897600 -0.5710958049
-0.8510966847 -0.5092359450 0.1277230816
-0.4432244818 0.2830576460 0.8505471344
-0.2863982990 -0.2177507996 0.9330383720
0.2092439588 -0.9227828943 -0.3235563254
-0.6192904268 0.6705755857 -0.4084210465
-0.2145043674 -0.7654679575 -0.6066685112
-0.9992403322 0.0325994492 -0.0213549601
-0.4496600554 -0.0847817948 0.8891669595
0.2084256337 -0.6734879568 -0.7092057017
-0.3083637168 -0.9469319460 -0.0907287597
0.0824681671 -0.6891233326 -0.7199361318
0.1764861743 0.7645315331 -0.6199549703
0.7560880284 0.0045726027 -0.6544539591
-0.1526388908 0.6332306981 0.7587623159
0.9570960287 0.2438520148 0.1565355768
-0.5674987202 -0.0428233961 0.8222599099
0.5202275884 -0.4687778897 0.7138701188
-0.3637535610 -0.5916410728 -0.7194749390
-0.6640110242 -0.3149933739 0.6781360735
0.7380663167 0.6132483818 0.2813974668
0.8295940065 -0.3916751111 0.3979502376
-0.9033960000 -0.3986644383 0.1579314179
-0.1637379500 -0.3995374171 -0.9019754631
-0.0449819774 0.9223701267 0.3836795162
-0.6673512463 0.2474977258 -0.7024152545
-0.3040552678 -0.9025201016 -0.3049719009
-0.7836042541 -0.5082808675 0.3572323231
-0.6658535983 -0.7437033352 -0.0595343164
-0.5537265799 -0.5400113728 0.6338569176
0.8154359127 0.1261343378 0.5649375196
0.8099212964 0.5572840661 -0.1829261143
0.5151916675 -0.1666717546 -0.8407128356
0.2570979394 -0.2594494653 -0.9309063457
-0.7797218104 0.0305413782 -0.6253807821
-0.1633784834 0.7886065105 0.5927961224
0.4680553375 0.5883040979 0.6594107138
0.5383443342 -0.7427860569 0.3980631251
-0.4519095041 -0.7754135543 0.4410347151
-0.9309016694 0.3503864496 0.1032057061
-0.3334717470 0.0312123903 -0.9422432704
0.7290812554 0.1556555162 0.6664922230
-0.8066627720 0.4907516307 -0.3293296362
-0.6052264923 0.5719191488 0.5537231982
0.9413658505 -0.2089844945 0.2648694331
0.2637348925 -0.3406319651 0.9024487636
-0.6298409583 -0.6129261634 -0.4770973543
-0.5457620032 0.6686928501 0.5049690169
0.9207610392 0.2788172976 0.2728736399
0.2553757694 -0.5761308569 -0.7764383119
0.8644957789 -0.4210115237 0.2745839492
0.8444474479 -0.0032718486 0.5356284186
0.3929424355 0.6922597233 0.6052873020
-0.0033592011 0.4559083363 0.8900203956
0.3894493053 0.2196644647 0.8944701010
-0.2656492133 0.8206109058 -0.5059923287
0.8329711409 0.5510055827 0.0505165933
-0.5555992596 -0.7809796379 -0.2852722698
-0.1621446739 -0.9129019907 0.3745918581
-0.4498073754 -0.1881625322 -0.8730797137
0.6131582834 0.7711256927 0.1714703637
-0.5325905886 -0.3949226106 -0.7485876012
-0.8630963757 0.3868551360 0.3246655971
-0.0227523025 0.6474452712 0.7617722452
-0.7199859826 0.6730226626 -0.1692946559
-0.7922019694 0.4544486543 0.4072989814
-0.3704553818 -0.5086109486 0.7772243646
0.7058356921 -0.5819878663 0.4038391997
-0.9113369230 -0.0057572120 0.4116210239
0.8313762476 -0.0326684669 -0.5547488677
0.4390844864 0.2904373457 -0.8502064232
-0.2959850106 -0.9452383939 0.1375400022
-0.5616266918 -0.7881270226 0.2518556238
0.6746651447 0.0646168724 0.7352901484
-0.4470767442 -0.4889887154 -0.7490076241
-0.9265078990 0.3747839423 -0.0334680398
-0.0305229516 -0.2365009203 0.9711517205
0.8915171328 -0.0703319914 -0.4474937016
-0.1875718743 0.3436308467 0.9201818479
0.0690873495 0.3494433792 0.9344069044
-0.4779144065 0.7552292777 0.4485828331
-0.1411764348 0.8396938936 -0.5243885766
-0.3727353954 -0.9065407466 -0.1981216793
-0.8310205537 -0.5035120802 -0.2363904068
0.3779812228 -0.5441679545 -0.7490069643
0.1428435841 -0.3477749578 0.9266327693
0.7504406623 0.5196147467 -0.4084597010
0.7039516103 -0.7057295412 0.0799871554
-0.7213724328 -0.6113145839 0.3254478342
-0.5507861464 0.2237517310 0.8040956310
-0.3658058369 -0.9304569914 0.0208776641
-0.9143460278 0.0440094828 -0.4025351002
-0.4967769382 -0.4741378781 0.7269153639
-0.3326614926 -0.0971329702 0.9380306591
-0.1375025765 -0.0627159012 -0.9885139135
0.2981089491 -0.1107739539 0.9480823728
0.6173216319 0.3830442255 0.6871616433
-0.5424963580 -0.7567244508 0.3647818625
-0.9502751318 0.0562471835 0.3062897781
-0.7817346807 0.2801584094 0.5571374648
0.3041428063 0.5352562337 0.7880342110
0.5601674984 0.2745019955 -0.7815759900
-0.2110534510 0.5362211314 0.8172657702
0.1788510591 0.0825349141 -0.9804082245
0.4388707319 0.0835487686 -0.8946575233
-0.2055160541 0.0457614930 -0.9775832636
0.2287288239 0.6385432282 0.7348099556
-0.6019406455 -0.2426920349 0.7607680563
-0.5689717959 -0.1915743806 -0.7997314250
-0.7289520869 -0.0548795121 0.6823614102
-0.7850367658 -0.6120489334 0.0954640218
0.1261007053 0.0019394373 0.9920155496
0.4341643884 0.8964880162 0.0883771494
-0.9924316616 -0.0837829197 0.0897764966
0.3448160015 -0.6190147611 0.7056363445
0.4196122076 -0.1237481380 -0.8992285547
-0.2689392777 0.3772675179 -0.8861946089
-0.0440667080 -0.6503492410 0.7583561102
0.6004604371 -0.6536419014 0.4606512002
-0.8528107389 -0.3059392317 -0.4232198367
0.5603382758 0.0650413335 -0.8257061473
-0.9629309975 0.1731649405 -0.2068279417
0.4986897132 0.6456898855 -0.5782673618
0.2911046717 0.4969905517 -0.8174707711
0.0193710429 -0.3503678312 0.9364118461
-0.9741632062 -0.1711347682 -0.1473734671
0.0084668651 -0.2844671630 -0.9586483951
0.3369185264 0.7773701491 0.5312076410
-0.2047105802 -0.1184258367 0.9716320804
-0.4855530398 -0.2855713886 0.8262488896
0.6268096769 0.1819917687 0.7576203700
0.6134267728 -0.7760680204 0.1463763032
0.9165942279 0.3930770573 -0.0731125741
0.0518106697 0.5562183596 0.8294195506
-0.2262827150 0.9712807007 -0.0735522493
-0.9257089254 0.2824156216 -0.2516036606
-0.4397385631 0.7026853312 -0.5593418646
0.1861405931 0.9736977117 0.1313942381
-0.6507398620 0.6212373367 0.4365796646
-0.8511841348 -0.4562798783 0.2594113360
0.2368517396 0.4035988388 -0.8837472664
0.3405203000 -0.8685096453 0.3601901184
0.4943606689 -0.0081902791 0.8692182973
0.1657059579 0.8902026403 -0.4243592754
-0.3653964035 0.6514111329 -0.6649428579
-0.2431292893 -0.9489150822 -0.2011176658
0.8182767399 0.4890082567 -0.3021491383
-0.8204172504 0.4989563999 0.2792096816
-0.4498598874 0.8160408786 -0.3629095841
-0.2499259632 -0.0020365235 0.9682628081
0.4938174344 0.3832466777 -0.7805551393
-0.9734732891 -0.2141496549 0.0805585550
0.8390393274 -0.5390219412 0.0739483199
0.9876137291 -0.1423357776 0.0660276348
-0.9410571332 -0.3338928451 0.0541021260
-0.0590556362 0.3488527781 0.9353150117
0.7185650407 0.3597699147 0.5951721522
-0.0365710340 0.8062206285 0.5904835795
-0.1009564807 0.9916549740 -0.0801760659
0.2435188881 0.1978029054 -0.9495117491
0.2645793274 0.2286470735 0.9368662099
0.9573334904 0.2151981999 -0.1928790368
-0.6900769549 0.0219844626 -0.7234020180
0.9747310844 -0.1123218752 0.1930883462
0.7115556550 -0.2220685457 -0.6666139144
-0.5223598402 -0.6955330857 -0.4933294275
-0.8338031477 -0.5520279242 -0.0061222314
0.2578537095 0.9375858944 0.2333327133
-0.7602018273 0.2482774139 -0.6003761383
0.6509600661 -0.6770226950 0.3433529712
-0.6966793705 -0.6139709326 -0.3710492537
-0.9574681060 0.0541300483 -0.2834162377
-0.9855041662 0.0617811248 -0.1580019969
0.0470681109 -0.5013044460 -0.8639898410
0.2138601881 -0.6439061932 0.7346078099
-0.1946243681 -0.1808517820 -0.9640611953
-0.9713797390 -0.0609367448 -0.2295824815
-0.1245529169 -0.0026139633 0.9922095233
-0.8914962611 0.2661958513 0.3665708460
0.0007384280 -0.0006091277 0.9999995418
0.5519857268 0.7853512806 0.2802411880
0.8745038293 0.3757378346 -0.3066987645
-0.5105829858 0.8562797688 0.0780382731
-0.5537217261 -0.3617202945 0.7500337850
0.3778312438 0.4252727523 0.8224272839
-0.7491139315 0.4038520887 0.5251017121
-0.7044410834 -0.7069753483 0.0628380220
-0.7350105142 0.0841925567 0.6728084106
-0.8475763135 0.4888467381 -0.2065024440
-0.4874853889 -0.8728462463 0.0223030480
-0.5304378482 -0.1663450930 0.8312430447
0.1253139543 0.4539413924 0.8821755070
0.4305798975 -0.8980521677 -0.0900180865
-0.9656189844 -0.2555498461 -0.0476891301
0.7921678783 -0.0963947886 0.6026425950
-0.9284170410 -0.2145578688 0.3033260932
0.5896192380 0.7161629755 -0.3734430970
-0.5575029282 -0.4948193155 -0.6665915767
-0.2895263858 0.5792715320 -0.7619835721
0.8196973175 -0.4144813631 -0.3953498543
0.2761487784 0.7165147845 0.6405844330
0.6762383572 0.6221702052 -0.3944691624
-0.3630047833 -0.8415532969 -0.4000194693
-0.3861691448 0.3541974299 -0.8517144899
0.7449987196 -0.6061364391 0.2785238321
-0.8959223321 -0.3399962454 0.2858771205
-0.6360307142 0.1272885585 -0.7610929993
-0.5533649579 -0.6025878145 -0.5750436063
0.3936443706 -0.9190157835 0.0213096020
0.2719108173 -0.5479480598 0.7910862349
-0.7511680938 0.6589345862 -0.0393916992
-0.2420056696 -0.5970585450 -0.7648230839
0.7093718538 0.3435848500 -0.6154193886
0.6623666780 0.0324517273 -0.7484766324
-0.1805875960 0.9645306784 -0.1925323104
0.9335218816 -0.3514099665 -0.0710488009
-0.1577269048 -0.8402246955 -0.5187915618
-0.8048944156 0.5804301970 -0.1234737466
0.9613221291 -0.2389005906 0.1370630216
-0.2449273412 0.6773687566 -0.6936729526
-0.8736620103 0.4802759388 -0.0777799093
0.4114226852 0.7293558567 -0.5465998613
0.3458068490 -0.7860897889 -0.5123284756
-0.8828681635 0.4281622921 0.1929270780
-0.9403302969 0.1920754784 0.2808664156
-0.3957091300 0.1330150785 -0.9086920674
0.1805381864 -0.1525584722 -0.9716644873
0.2836486952 -0.8371229882 0.4677269721
-0.5896599259 0.3563596761 -0.7247820038
-0.4989837508 -0.8459262711 -0.1882125404
-0.7872633712 -0.3065184731 -0.5350353352
0.7724382748 0.2461740534 0.5854378251
0.3854698263 0.8023050955 -0.4557625991
0.2002611567 0.9578671263 -0.2058786959
-0.9680342150 -0.1525286855 0.1991099159
-0.8986660601 -0.1437636931 0.4144047695
-0.4746695831 0.4651245314 0.7472268445
-0.7595185917 -0.2618684892 0.5954463898
0.6685365145 0.2520436583 -0.6996662941
-0.2370277737 0.2303297770 0.9438040201
-0.6473708276 -0.7049566929 0.2897362123
0.4264963577 0.5107233444 0.7465001824
-0.7169962421 -0.5171922203 -0.4673634518
-0.1028069660 -0.9590212850 0.2640244356
0.3801733174 -0.2363365882 -0.8942109739
-0.4351583281 -0.6750364938 -0.5957876816
0.8958871451 0.4417816124 0.0470662308
0.6285142146 -0.1802662268 -0.7566200959
-0.4323587041 -0.4001466785 0.8080523415
0.3995097501 -0.5177592949 0.7565165379
0.0297982121 -0.8738938310 0.4852026780
-0.7889603964 -0.1293915805 0.6006657238
0.6977583887 -0.0890053822 -0.7107821557
0.5864635027 -0.7604492508 0.2788861722
-0.8009709588 -0.5830473156 -0.1360196712
-0.6408510097 -0.1175992538 0.7586042439
-0.2572067135 0.9192736407 -0.2979608701
-0.4744454939 0.8793267511 -0.0410601757
-0.0926530507 -0.7752049935 -0.6248780924
0.5473285239 0.4888218742 0.6793266241
0.8237809960 -0.5261543083 0.2110604520
-0.1146310580 -0.9929957736 0.0286201708
0.5714720282 -0.5463255689 -0.6123300530
0.0832715035 0.6044761049 -0.7922591087
-0.2254474272 -0.9394092198 0.2582320186
0.5889250538 -0.6772422902 -0.4410330614
-0.5441409710 0.5221352536 0.6567232146
0.1522034027 -0.8886055480 -0.4326826831
-0.8574144002 -0.0676477044 0.5101610868
0.5298694010 -0.7632622504 -0.3696879156
-0.0659924948 0.9855515662 0.1559907080
0.7480029133 0.5364423667 0.3907956357
-0.0781778002 -0.5051798473 -0.8594658536
0.4497119188 -0.3133825300 -0.8363914036
0.5928234555 0.6391684391 -0.4899225011
-0.5192926833 0.8286836421 0.2088504977
0.7928725058 -0.5049174507 0.3411913798
0.1392944147 -0.9898741013 0.0273190322
0.0927801557 -0.8390250111 -0.5361239348
-0.0435300601 0.6053391168 -0.7947765016
-0.6947684728 0.6968543828 0.1780189272
0.5351042754 0.8328663454 -0.1414109796
0.0176807567 -0.5603880487 0.8280414396
0.9970771508 0.0751386896 0.0138323091
0.9466966617 -0.0767517538 0.3128491635
-0.6370166912 -0.4008151798 -0.6584503981
0.5551520210 0.8286664432 0.0715413132
0.4592180932 0.8559756452 -0.2375382869
0.1297784729 0.6901531530 -0.7119312982
-0.0735284521 0.7753921387 -0.6271846603
-0.8556566311 0.0346622154 -0.5163818940
-0.6576837940 0.0208129313 0.7530065398
-0.4161825622 -0.7659862099 -0.4899563257
0.4143106249 0.9015947043 -0.1243933088
-0.4851627946 -0.6398446973 0.5959998541
-0.1730956621 -0.9742947715 0.1441790203
0.9459911115 0.1271706187 -0.2982087369
-0.8850769154 0.2756054946 -0.3750739462
0.9032068499 -0.0404212197 0.4272979186
-0.2289569945 -0.8834723698 -0.4087239491
-0.6945659175 0.3465934953 0.6304372572
-0.8167060183 -0.0809585563 -0.5713466476
0.9930383204 -0.0126059842 0.1171152565
-0.6090614768 -0.2964859136 -0.7356223355
-0.6046633127 -0.7956060654 0.0373264902
0.3252371260 0.1125297639 0.9389131291
0.3514022618 -0.7605762994 0.5459305297
-0.5728809291 0.2305151637 -0.7865559106
0.5027934812 0.6579483989 0.5606269880
0.1950080283 -0.9764536674 -0.0922502265
0.5283445174 -0.3900007382 -0.7541561477
0.2849307544 0.9524740648 -0.1077386704
0.6701569975 0.5411576077 -0.5079744504
0.0507015086 0.0706835731 -0.9962094105
0.1522921104 -0.7307603636 0.6654294884
0.9166534760 0.3648979645 0.1630824345
0.4548600660 -0.6054037244 -0.6531375435
0.7551379772 0.6530777470 0.0570621744
-0.1723795628 -0.6362031578 0.7520178378
0.0785877684 -0.4592322135 0.8848331689
0.0261396038 -0.9019985014 -0.4309471250
-0.0776217347 0.5519073203 0.8302849969
-0.9455105167 -0.0838523872 0.3146087092
-0.6554861174 0.4648311506 0.5952058059
0.7078283987 0.6843755781 0.1749543544
0.1452644584 -0.5584963983 0.8166884413
0.8854615919 -0.3213285760 -0.3357167193
-0.8415824390 -0.1949666233 -0.5037132261
0.4055851947 -0.7006284177 -0.5870438401
-0.2314308714 -0.7085319477 0.6666500063
0.3230168204 0.3317973889 0.8863242220
0.0429318941 0.9026317892 -0.4282670960
0.4149645677 -0.4339397888 -0.7996878561
-0.4594875958 0.4380559008 -0.7726436288
0.3768419387 0.1932084349 -0.9059032255
0.8952415604 -0.2019598199 -0.3971835590
-0.5044789443 0.8009141654 0.3225484372
0.0718058747 0.9766243600 -0.2026049750
0.5279964450 -0.8481852112 -0.0424452768
-0.2394557851 -0.5340978731 0.8108023119
-0.2881762894 0.8761964450 0.3863084468
-0.7936675183 -0.5637816425 0.2285653736
-0.4512959452 0.2325239459 -0.8615477842
0.0896074423 0.8096774529 0.5799939039
0.4476271409 0.8378002349 0.3126031175
-0.3502914586 0.7998765087 0.4873330123
-0.1443994736 0.1677774800 -0.9751920371
0.9351182105 0.0575933885 0.3496239894
-0.0547887410 0.9783913717 -0.1993703030
0.0908070016 -0.8082041952 0.5818591474
-0.6018908808 -0.5985993352 0.5285888794
0.5403067273 -0.6206330978 0.5682281217
0.0226303815 0.8734028419 0.4864723442
-0.0776071487 0.0590673119 -0.9952327281
0.2840225317 -0.7101554120 0.6442130799
0.8600700157 0.5054193166 -0.0695045503
0.5691243857 0.2959323792 0.7671515239
0.9375556254 -0.1057441347 -0.3313723394
0.5957654512 -0.0652303527 -0.8005051707
-0.1728561997 0.1158221211 0.9781134753
0.1042113024 0.6486546003 0.7539145933
0.3809225832 0.6582785196 -0.6492822008
0.8931002991 -0.3021294334 0.3333011570
0.6773161319 -0.4726020215 -0.5638175119
-0.7582532260 -0.6509478339 -0.0363175269
0.6849207979 -0.6964761020 0.2140199520
0.1310333416 -0.5941068398 -0.7936418123
-0.3572510282 0.6674767065 0.6533349441
-0.3770401607 0.0299089099 0.9257138728
-0.8628694323 0.0710042262 0.5004145709
-0.9410286897 -0.2871106586 -0.1789761851
