5.79735981e-01 -6.82865868e-01 4.44506629e-01
-1.35977120e-01 3.24593860e-01 9.36012303e-01
7.60253113e-01 -4.18794708e-01 -4.96630771e-01
4.52076294e-03 -6.96352621e-01 7.17669544e-01
-3.47447411e-01 9.06540192e-01 -2.39734987e-01
-4.13598131e-01 -6.64985403e-01 6.21860964e-01
-8.31384348e-02 -2.22578254e-01 -9.71379468e-01
-5.79735981e-01 6.82865868e-01 4.44506629e-01
2.56837961e-01 6.00414705e-01 -7.57337923e-01
3.07402359e-02 9.70487010e-01 -2.39202156e-01
-2.90984540e-01 1.01266133e-01 -9.51369369e-01
6.56016947e-01 -7.50618697e-02 -7.51020349e-01
-3.26968588e-01 -9.44919853e-01 1.47492982e-02
6.21181261e-02 -8.08208642e-01 -5.85626937e-01
-5.17316057e-01 1.66791000e-01 8.39367585e-01
-3.35170054e-01 -8.41706548e-01 -4.23325758e-01
-7.60253113e-01 4.18794708e-01 -4.96630771e-01
-9.06460970e-01 5.31739006e-02 -4.18944483e-01
7.65841354e-01 2.61417115e-01 -5.87509109e-01
4.98001142e-01 -8.60231787e-01 1.09510832e-01
2.32428572e-01 4.32211256e-01 8.71287810e-01
9.34265811e-01 -3.30600303e-01 -1.33623047e-01
2.32439687e-01 -8.57318711e-01 4.59305661e-01
4.13598131e-01 6.64985403e-01 6.21860964e-01
-8.36789891e-01 -5.35908145e-01 1.12167467e-01
-9.36537007e-01 -2.07964082e-01 2.82206174e-01
2.90984540e-01 -1.01266133e-01 -9.51369369e-01
-3.07402359e-02 -9.70487010e-01 -2.39202156e-01
-6.56016947e-01 7.50618698e-02 -7.51020349e-01
7.47123450e-01 -3.57347994e-01 5.60438211e-01
5.99747664e-01 5.92203198e-01 -5.38159241e-01
-2.56837961e-01 -6.00414705e-01 -7.57337923e-01
-4.52076292e-03 6.96352621e-01 7.17669544e-01
-9.93623375e-01 -8.65246958e-02 -7.23075650e-02
-3.86860432e-01 5.43310696e-01 7.45069527e-01
-8.02476670e-01 -2.65653249e-02 5.96075802e-01
7.00729716e-01 -6.82994563e-01 -2.06162319e-01
8.11995534e-01 -5.60861275e-01 1.61532356e-01
3.47447410e-01 -9.06540192e-01 -2.39734987e-01
3.86860432e-01 -5.43310696e-01 7.45069527e-01
-2.32439687e-01 8.57318711e-01 4.59305661e-01
-7.47123450e-01 3.57347994e-01 5.60438211e-01
1.20303894e-01 -5.22049940e-01 -8.44403879e-01
9.06460971e-01 -5.31739005e-02 -4.18944483e-01
-9.48963853e-01 1.92398360e-01 2.49884899e-01
6.36686117e-01 7.54372309e-01 -1.59869740e-01
-2.32428572e-01 -4.32211256e-01 8.71287810e-01
5.17316057e-01 -1.66791000e-01 8.39367585e-01
7.26089651e-01 4.58462384e-01 5.12434999e-01
-1.83988140e-01 -8.99518166e-01 3.96235695e-01
5.70441331e-01 7.75543340e-01 2.70408107e-01
1.83988140e-01 8.99518166e-01 3.96235695e-01
9.36537007e-01 2.07964082e-01 2.82206174e-01
-7.65841354e-01 -2.61417115e-01 -5.87509109e-01
1.00287334e-01 -9.87520904e-01 1.21412607e-01
-2.01723851e-01 -5.51518348e-02 9.77872386e-01
-8.74499821e-01 -4.15473655e-01 -2.50279306e-01
-5.70441331e-01 -7.75543340e-01 2.70408107e-01
-8.11995534e-01 5.60861275e-01 1.61532357e-01
-4.49139482e-01 7.06893350e-01 -5.46436675e-01
4.73858071e-01 -4.09207772e-01 -7.79764409e-01
3.35170054e-01 8.41706548e-01 -4.23325758e-01
4.49139482e-01 -7.06893350e-01 -5.46436675e-01
1.35977120e-01 -3.24593860e-01 9.36012303e-01
-1.20303894e-01 5.22049940e-01 -8.44403879e-01
8.02476670e-01 2.65653248e-02 5.96075802e-01
8.74499821e-01 4.15473655e-01 -2.50279306e-01
3.26968588e-01 9.44919852e-01 1.47492983e-02
-7.00729716e-01 6.82994564e-01 -2.06162319e-01
8.31384347e-02 2.22578254e-01 -9.71379468e-01
9.48963853e-01 -1.92398360e-01 2.49884899e-01
4.56442526e-01 2.78313469e-01 -8.45120663e-01
5.52004227e-01 2.41129887e-01 7.98199294e-01
8.36789891e-01 5.35908145e-01 1.12167467e-01
-6.21181260e-02 8.08208642e-01 -5.85626937e-01
-6.36686117e-01 -7.54372309e-01 -1.59869740e-01
-4.98001142e-01 8.60231787e-01 1.09510832e-01
-4.56442526e-01 -2.78313469e-01 -8.45120663e-01
-9.34265811e-01 3.30600303e-01 -1.33623047e-01
-7.26089651e-01 -4.58462384e-01 5.12434999e-01
-5.99747664e-01 -5.92203198e-01 -5.38159241e-01
-1.00287334e-01 9.87520904e-01 1.21412608e-01
2.01723851e-01 5.51518347e-02 9.77872386e-01
9.93623375e-01 8.65246958e-02 -7.23075648e-02
-4.73858071e-01 4.09207773e-01 -7.79764409e-01
-5.52004227e-01 -2.41129887e-01 7.98199294e-01
