5.78972676e-01 -1.99270428e-01 7.90621235e-01
-7.70297666e-01 6.77876521e-02 -6.34071242e-01
-9.13255773e-01 -3.86818619e-01 -1.27809427e-01
-1.79820420e-01 -1.36748969e-01 -9.74148005e-01
2.22655998e-01 -9.74495623e-01 2.79747671e-02
-1.45965366e-01 -9.88894092e-01 -2.79747670e-02
1.41153436e-01 9.44660680e-01 2.96128194e-01
2.87934250e-01 -4.57278298e-01 8.41421670e-01
-6.20425491e-01 4.24898677e-01 -6.59191417e-01
4.45316691e-01 1.50797470e-01 8.82583236e-01
-2.14408451e-01 9.30772319e-01 -2.96128194e-01
8.26095328e-01 -2.54894918e-01 5.02588391e-01
7.32609966e-01 6.80073562e-01 2.79747671e-02
-5.03459716e-01 8.61352091e-01 -6.78298631e-02
9.29390088e-01 3.68037331e-01 -2.79747671e-02
4.34738920e-01 8.97998431e-01 6.78298631e-02
-4.62059591e-01 -4.01769831e-01 7.90621235e-01
4.43854662e-01 6.33203522e-01 -6.34071242e-01
7.55987785e-01 5.53574080e-01 -3.49339673e-01
3.27975965e-01 3.36865846e-01 -8.82583236e-01
7.91622637e-01 -5.97493390e-01 -1.27809428e-01
-6.33793138e-01 -5.87972081e-01 5.02588391e-01
7.62663200e-01 1.27665595e-01 6.34071242e-01
5.53447666e-01 -5.68979825e-01 6.08241432e-01
2.16027149e-01 7.63789651e-01 6.08241432e-01
-2.74945805e-01 7.44612090e-01 -6.08241432e-01
-1.92302190e-01 8.42866999e-01 5.02588391e-01
-5.39981747e-01 -2.07192260e-02 8.41421670e-01
9.97682650e-01 5.33285810e-03 -6.78298631e-02
1.21633136e-01 9.84312009e-01 -1.27809428e-01
-7.01458732e-01 2.70965540e-01 6.59191417e-01
-5.99752846e-01 6.94687614e-01 -3.97121697e-01
-7.83424722e-01 6.20856761e-01 -2.79747671e-02
1.16066325e-01 -7.42963851e-01 6.59191417e-01
6.78185794e-01 3.24854898e-01 -6.59191417e-01
-9.95058913e-01 -7.25042665e-02 6.78298631e-02
-9.52492790e-01 7.52704568e-04 -3.04560204e-01
-1.98040493e-01 9.71825454e-01 1.27809428e-01
-1.16913085e-01 6.01040259e-01 7.90621235e-01
8.25312610e-01 4.43645002e-01 3.49339673e-01
-9.55265964e-01 2.94422061e-01 2.79747671e-02
1.01415324e-01 -9.31491667e-01 -3.49339673e-01
-4.91893249e-01 5.96652908e-01 6.34071242e-01
-9.12167660e-01 1.01215205e-01 3.97121697e-01
3.68428891e-01 -8.40567969e-01 3.97121697e-01
3.26443004e-01 -7.00991174e-01 -6.34071242e-01
-7.96864147e-01 4.92919185e-01 3.49339673e-01
9.13276698e-01 -2.79702994e-01 -2.96128194e-01
-5.61665261e-01 -2.43824112e-01 -7.90621235e-01
-2.00889734e-01 -1.03339145e-01 9.74148005e-01
4.91990505e-01 -3.64504328e-01 -7.90621235e-01
-3.01740699e-01 -8.66745008e-01 -3.97121697e-01
-2.70769951e-01 -7.24318503e-01 6.34071242e-01
1.89939191e-01 -1.22306040e-01 9.74148005e-01
-8.03696186e-01 -3.18555097e-01 -5.02588391e-01
1.27746397e-01 -4.52468441e-01 -8.82583236e-01
-2.84484628e-02 -9.36564188e-01 3.49339673e-01
-8.57403108e-01 3.77917587e-01 -3.49339673e-01
-2.51388526e-01 -4.78344418e-01 -8.41421670e-01
6.77724900e-01 -5.36743765e-01 -5.02588390e-01
-2.88564155e-01 4.56881059e-01 -8.41421670e-01
5.85392407e-01 4.71998311e-01 6.59191417e-01
-2.85178716e-02 2.24103536e-01 -9.74148005e-01
-4.55722363e-01 1.15602595e-01 -8.82583236e-01
4.76898256e-01 8.24506601e-01 -3.04560204e-01
6.96747556e-02 6.08328440e-01 -7.90621235e-01
9.01493545e-01 1.72057393e-01 -3.97121697e-01
-7.69474816e-01 -1.94809826e-01 6.08241432e-01
9.49532053e-01 7.50464051e-02 3.04560204e-01
-7.42605285e-01 -6.57420825e-01 1.27809428e-01
1.25971286e-01 8.55298863e-01 -5.02588391e-01
-5.39758120e-01 7.84795677e-01 3.04560204e-01
-3.53252785e-01 3.10256832e-01 8.82583236e-01
5.39952681e-01 2.14633592e-02 -8.41421670e-01
-8.88676865e-01 -3.50087878e-01 2.96128194e-01
7.82325889e-01 -1.34195993e-01 -6.08241432e-01
7.47523429e-01 -5.94572801e-01 2.96128194e-01
5.43738769e-01 7.39352764e-01 3.97121697e-01
2.52047498e-01 4.77997524e-01 8.41421670e-01
5.60319993e-01 -8.25494164e-01 6.78298631e-02
4.75594534e-01 -8.25259306e-01 -3.04560204e-01
1.09505423e-02 2.25645185e-01 9.74148005e-01
-9.20639058e-02 -4.61054302e-01 8.82583236e-01
2.08338291e-01 -8.73545669e-02 -9.74148005e-01
-6.98868248e-01 -6.51069324e-01 -2.96128194e-01
-5.77603031e-02 -7.49753575e-01 -6.59191417e-01
9.40645778e-01 -3.14404630e-01 1.27809428e-01
-4.94222934e-01 -8.66684949e-01 -6.78298631e-02
-5.07380083e-01 -6.10416097e-01 -6.08241432e-01
-4.09773933e-01 -8.59842082e-01 3.04560204e-01
