-5.43294822e-01 -7.88441470e-01 2.88426901e-01
3.68654980e-01 6.16152129e-01 6.96023240e-01
8.52191905e-01 -4.77701270e-01 -2.13473599e-01
8.73705948e-01 4.46889737e-01 -1.92166470e-01
3.34129294e-02 9.78473991e-01 -2.03648533e-01
5.46864179e-01 -7.59101495e-01 3.53134002e-01
5.70527586e-01 3.37973668e-01 -7.48514470e-01
6.09584449e-01 -6.98648625e-01 -3.74563505e-01
-8.24055879e-01 -2.26959225e-01 -5.19059430e-01
-7.16925215e-01 4.55504457e-01 5.27761906e-01
-2.10949605e-01 -3.47576392e-01 9.13612978e-01
-2.39359788e-01 -3.68145394e-01 -8.98430891e-01
9.73867412e-01 1.77268913e-01 1.41977630e-01
2.10949605e-01 3.47576392e-01 9.13612978e-01
6.35529402e-01 -7.71888797e-01 -1.70325089e-02
-8.34304495e-01 5.20393619e-01 1.82005616e-01
-8.30695469e-01 -5.29336157e-01 1.72475644e-01
6.50257908e-01 5.96907469e-01 -4.69965190e-01
-3.71407822e-01 -8.55058400e-01 -3.61845618e-01
-3.72665287e-01 6.37131197e-01 6.74672339e-01
3.21338748e-01 -9.43766080e-01 7.77612025e-02
-4.98968228e-01 3.23348810e-01 8.04036243e-01
9.73618462e-01 8.74056447e-02 -2.10779177e-01
-4.56872339e-04 6.68204418e-01 7.43976357e-01
-1.83456713e-01 8.71118637e-01 4.55516011e-01
-5.70211204e-01 -2.73895088e-01 7.74492584e-01
-5.46864179e-01 7.59101495e-01 3.53134002e-01
5.43294822e-01 7.88441470e-01 2.88426901e-01
-6.35529402e-01 7.71888797e-01 -1.70325089e-02
7.23473119e-01 -6.58241739e-02 6.87206037e-01
-3.47078817e-01 6.88387673e-01 -6.36914649e-01
6.70561478e-01 -5.73795950e-02 -7.39632816e-01
-9.15077308e-01 1.61845236e-01 3.69376141e-01
6.62300193e-01 -4.24690663e-01 -6.17250201e-01
-3.55948180e-01 -9.34388659e-01 1.47881630e-02
-3.21338748e-01 9.43766080e-01 7.77612024e-02
5.70211204e-01 2.73895088e-01 7.74492584e-01
-6.71887619e-01 -5.34480947e-01 5.12733738e-01
8.50919145e-01 2.16267323e-01 4.78710642e-01
-9.73618462e-01 -8.74056447e-02 -2.10779177e-01
-5.70527586e-01 -3.37973669e-01 -7.48514470e-01
8.24055879e-01 2.26959225e-01 -5.19059430e-01
3.04368169e-02 9.84655603e-01 1.71832833e-01
-6.09584449e-01 6.98648625e-01 -3.74563505e-01
-1.51715267e-01 3.58613248e-01 9.21073696e-01
4.56872438e-04 -6.68204418e-01 7.43976357e-01
-9.73867412e-01 -1.77268913e-01 1.41977630e-01
-5.75066979e-02 5.64229251e-01 -8.23614203e-01
3.66154778e-01 2.51693093e-02 -9.30214743e-01
2.19635070e-01 8.59000065e-01 4.62469663e-01
-7.85666249e-12 2.35679689e-11 9.99998772e-01
-3.24117883e-01 -6.60947482e-01 -6.76829141e-01
-3.66154778e-01 -2.51693094e-02 -9.30214743e-01
-9.77946304e-01 2.08751741e-01 6.61218374e-03
9.77946304e-01 -2.08751741e-01 6.61218373e-03
-5.84373037e-03 -8.35022386e-01 -5.50186166e-01
3.66408559e-01 -2.64520336e-03 9.30449078e-01
6.71887619e-01 5.34480947e-01 5.12733738e-01
8.34304495e-01 -5.20393619e-01 1.82005616e-01
-8.73705947e-01 -4.46889737e-01 -1.92166469e-01
-8.80260648e-01 1.80893284e-01 -4.38656915e-01
-3.04368167e-02 -9.84655603e-01 1.71832833e-01
4.98968228e-01 -3.23348809e-01 8.04036243e-01
3.11091338e-01 -9.02559305e-01 -2.97673666e-01
-6.50257908e-01 -5.96907469e-01 -4.69965190e-01
9.15077308e-01 -1.61845236e-01 3.69376141e-01
5.75066979e-02 -5.64229251e-01 -8.23614203e-01
-7.23473119e-01 6.58241740e-02 6.87206037e-01
3.85041685e-01 -3.51683839e-01 -8.53266356e-01
-2.19635070e-01 -8.59000065e-01 4.62469663e-01
7.16925215e-01 -4.55504457e-01 5.27761906e-01
-6.70561478e-01 5.73795950e-02 -7.39632816e-01
-6.62300193e-01 4.24690663e-01 -6.17250201e-01
1.83456713e-01 -8.71118637e-01 4.55516012e-01
-3.68654980e-01 -6.16152128e-01 6.96023241e-01
1.51715267e-01 -3.58613248e-01 9.21073696e-01
-3.66408559e-01 2.64520345e-03 9.30449078e-01
-8.52191905e-01 4.77701270e-01 -2.13473599e-01
5.84373022e-03 8.35022386e-01 -5.50186166e-01
6.57554737e-01 7.46047489e-01 -1.05048414e-01
3.71407822e-01 8.55058400e-01 -3.61845618e-01
3.24117883e-01 6.60947482e-01 -6.76829141e-01
-3.11091338e-01 9.02559305e-01 -2.97673666e-01
3.55948180e-01 9.34388659e-01 1.47881629e-02
-3.85041685e-01 3.51683839e-01 -8.53266356e-01
8.80260648e-01 -1.80893284e-01 -4.38656915e-01
3.72665287e-01 -6.37131197e-01 6.74672339e-01
-6.57554737e-01 -7.46047489e-01 -1.05048414e-01
2.39359788e-01 3.68145394e-01 -8.98430892e-01
8.30695469e-01 5.29336157e-01 1.72475644e-01
3.47078817e-01 -6.88387673e-01 -6.36914649e-01
-3.34129294e-02 -9.78473991e-01 -2.03648533e-01
-5.98554858e-02 1.77181743e-01 -9.82357554e-01
5.98554857e-02 -1.77181743e-01 -9.82357554e-01
-8.50919145e-01 -2.16267323e-01 4.78710642e-01
