-1.38985065e-01 7.76807849e-01 6.14210170e-01
-9.33604839e-01 2.90821293e-01 2.09297547e-01
4.86013809e-01 6.90663841e-01 -5.35511721e-01
-1.84661073e-01 9.49683180e-02 9.78204253e-01
5.04462089e-01 -2.54214430e-01 8.25163575e-01
4.74286739e-01 1.41108083e-01 8.68989413e-01
7.36609131e-01 -5.80411675e-01 -3.47172113e-01
9.28173915e-01 3.97585352e-02 3.70017965e-01
-7.26817623e-01 -6.32830498e-01 -2.66947726e-01
-9.99281080e-01 -3.65473039e-02 1.00817234e-02
-7.22327918e-01 -6.86116249e-01 8.65278594e-02
-7.69658920e-01 3.44590998e-01 5.37478772e-01
-2.39642967e-01 9.69517286e-01 5.10646546e-02
-5.01557272e-01 5.80839293e-01 -6.41143152e-01
-4.86013809e-01 -6.90663841e-01 -5.35511721e-01
6.96538094e-01 -6.36570988e-01 3.31078274e-01
9.41284086e-01 -2.70323077e-01 -2.02260320e-01
-6.22981279e-01 -6.51480967e-01 4.32975603e-01
7.22327918e-01 6.86116249e-01 8.65278595e-02
7.80228975e-01 -2.83221644e-01 -5.57697913e-01
1.40231465e-01 2.74796363e-01 9.51222522e-01
7.38192394e-01 -1.20456476e-02 6.74483836e-01
6.22981279e-01 6.51480967e-01 4.32975604e-01
1.33354982e-01 -9.47156046e-01 -2.91738240e-01
-4.83702434e-01 5.93820345e-01 6.42970322e-01
-2.05475318e-02 -9.46457625e-01 3.22174651e-01
-5.01147772e-01 2.65850024e-01 -8.23512463e-01
-1.49992536e-01 -3.26103177e-01 -9.33357813e-01
8.26716766e-01 -5.62617592e-01 -9.11563317e-04
9.33604839e-01 -2.90821293e-01 2.09297547e-01
7.51475858e-01 3.34142310e-01 5.68888621e-01
9.22840901e-01 3.58817161e-01 -1.40052109e-01
-4.22806345e-01 -8.39837438e-02 -9.02318927e-01
-7.17886391e-01 -5.28756758e-02 -6.94148178e-01
-1.88869472e-01 4.80737549e-01 -8.56281354e-01
-3.89267351e-01 8.47758321e-01 3.60246568e-01
8.93185974e-01 3.88759647e-01 2.26020518e-01
-7.38192395e-01 1.20456476e-02 6.74483836e-01
2.04909230e-01 -4.63200859e-01 8.62240777e-01
4.11955505e-01 8.88615942e-01 2.01630437e-01
4.61318823e-01 8.70090191e-01 -1.73573047e-01
1.88869472e-01 -4.80737549e-01 -8.56281355e-01
-9.24820270e-01 -5.25277260e-02 -3.76759124e-01
-8.26716766e-01 5.62617592e-01 -9.11563182e-04
-4.74286739e-01 -1.41108083e-01 8.68989413e-01
-4.93279841e-01 -4.13981990e-01 -7.65043886e-01
1.67560763e-01 -7.68016083e-01 -6.18120751e-01
-4.60246004e-01 8.18836820e-01 -3.43043856e-01
-5.04462089e-01 2.54214430e-01 8.25163575e-01
-1.85906561e-01 -8.78669281e-01 -4.39747692e-01
4.63603870e-01 4.84653356e-01 7.41744084e-01
-4.63603870e-01 -4.84653356e-01 7.41744084e-01
-8.93185973e-01 -3.88759647e-01 2.26020518e-01
1.39606764e-01 9.89491462e-01 -3.76365750e-02
5.01147772e-01 -2.65850024e-01 -8.23512463e-01
-1.63132317e-01 -6.45608585e-01 -7.46040001e-01
5.01557272e-01 -5.80839293e-01 -6.41143152e-01
-1.43238281e-01 1.18762381e-01 -9.82535510e-01
4.83702434e-01 -5.93820345e-01 6.42970322e-01
1.85906561e-01 8.78669281e-01 -4.39747692e-01
-9.22840901e-01 -3.58817161e-01 -1.40052109e-01
-4.61318823e-01 -8.70090191e-01 -1.73573047e-01
-1.39606764e-01 -9.89491462e-01 -3.76365752e-02
7.70488627e-01 3.72437754e-01 -5.17335678e-01
-7.80228975e-01 2.83221644e-01 -5.57697913e-01
4.60246004e-01 -8.18836820e-01 -3.43043856e-01
7.69658920e-01 -3.44590998e-01 5.37478772e-01
-6.96538094e-01 6.36570988e-01 3.31078274e-01
-1.26347739e-01 -6.00458591e-01 7.89612277e-01
3.89267350e-01 -8.47758321e-01 3.60246568e-01
2.05475318e-02 9.46457625e-01 3.22174651e-01
5.69924876e-01 -8.21691844e-01 2.85587001e-03
-1.67560763e-01 7.68016083e-01 -6.18120751e-01
-9.41284086e-01 2.70323077e-01 -2.02260320e-01
-2.04909230e-01 4.63200859e-01 8.62240777e-01
4.22806345e-01 8.39837439e-02 -9.02318927e-01
-7.36609131e-01 5.80411675e-01 -3.47172113e-01
9.99281080e-01 3.65473039e-02 1.00817233e-02
-1.40231465e-01 -2.74796364e-01 9.51222522e-01
-5.69924876e-01 8.21691844e-01 2.85587015e-03
-7.70488627e-01 -3.72437754e-01 -5.17335678e-01
1.63132317e-01 6.45608585e-01 -7.46040000e-01
9.24820270e-01 5.25277260e-02 -3.76759124e-01
-7.51475858e-01 -3.34142310e-01 5.68888621e-01
-9.28173915e-01 -3.97585353e-02 3.70017965e-01
1.26347739e-01 6.00458591e-01 7.89612277e-01
7.17886391e-01 5.28756759e-02 -6.94148178e-01
-2.85105954e-01 -7.96159584e-01 5.33709417e-01
-4.11955505e-01 -8.88615943e-01 2.01630437e-01
1.43238281e-01 -1.18762381e-01 -9.82535510e-01
1.84661073e-01 -9.49683181e-02 9.78204253e-01
1.49992536e-01 3.26103177e-01 -9.33357813e-01
-1.33354982e-01 9.47156046e-01 -2.91738240e-01
4.93279841e-01 4.13981990e-01 -7.65043886e-01
7.26817623e-01 6.32830498e-01 -2.66947726e-01
2.39642967e-01 -9.69517286e-01 5.10646545e-02
2.85105955e-01 7.96159584e-01 5.33709417e-01
1.38985065e-01 -7.76807849e-01 6.14210170e-01
